925984.91 6222851.29 -39.47 30 0 0
925989.87 6222862.52 -38.66 30 0 0
925983.53 6222867.63 -39.07 30 0 0
925981.56 6222871.95 -38.40 30 0 0
925989.07 6222869.84 -38.88 30 0 0
925988.89 6222877.02 -38.42 30 0 0
925993.88 6222876.05 -38.69 30 0 0
925999.58 6222872.51 -37.84 30 0 0
925996.93 6222875.79 -38.60 30 0 0
925964.16 6222878.27 -39.41 30 0 0
925975.78 6222878.04 -39.26 30 0 0
925993.25 6222881.03 -38.56 30 0 0
925998.55 6222881.86 -38.11 30 0 0
925971.83 6222882.46 -39.06 30 0 0
925972.68 6222886.20 -38.65 30 0 0
925983.49 6222883.91 -38.47 30 0 0
925963.35 6222887.65 -39.77 30 0 0
925965.95 6222891.02 -39.31 30 0 0
925974.89 6222891.12 -38.35 30 0 0
925984.26 6222888.13 -38.45 30 0 0
925981.51 6222890.07 -38.36 30 0 0
925977.31 6222892.27 -38.95 30 0 0
925975.51 6222894.30 -38.61 30 0 0
925978.51 6222894.19 -38.46 30 0 0
925977.03 6222896.10 -38.11 30 0 0
925984.92 6222896.86 -37.94 30 0 0
925981.11 6222896.62 -37.85 30 0 0
925960.24 6222900.61 -38.97 30 0 0
925964.03 6222900.19 -38.38 30 0 0
925960.92 6222901.64 -38.68 30 0 0
925969.95 6222900.26 -38.28 30 0 0
925978.78 6222900.27 -37.88 30 0 0
925982.74 6222898.74 -37.72 30 0 0
925986.75 6222899.23 -38.41 30 0 0
925990.45 6222899.68 -37.77 30 0 0
925994.33 6222900.69 -37.32 30 0 0
925997.66 6222898.61 -37.45 30 0 0
925998.17 6222900.98 -37.48 30 0 0
925999.29 6222900.71 -37.53 30 0 0
925954.62 6222904.75 -38.83 30 0 0
925960.03 6222905.23 -38.61 30 0 0
925989.90 6222906.63 -37.46 30 0 0
925991.83 6222902.36 -37.79 30 0 0
925996.02 6222902.71 -37.78 30 0 0
925996.62 6222905.72 -37.26 30 0 0
925999.65 6222904.22 -36.96 30 0 0
925942.56 6222911.45 -39.16 30 0 0
925954.95 6222908.80 -39.05 30 0 0
925978.46 6222907.25 -37.12 30 0 0
925975.89 6222911.99 -37.92 30 0 0
925987.26 6222911.67 -36.87 30 0 0
925998.25 6222911.42 -37.44 30 0 0
925978.42 6222917.02 -37.92 30 0 0
925977.19 6222914.10 -37.61 30 0 0
925998.87 6222913.25 -37.06 30 0 0
925999.62 6222913.79 -36.42 30 0 0
925999.34 6222916.63 -36.88 30 0 0
925937.28 6222921.95 -39.41 30 0 0
925972.48 6222921.02 -37.71 30 0 0
925979.81 6222919.41 -36.76 30 0 0
925982.95 6222920.73 -37.04 30 0 0
925993.04 6222920.53 -36.50 30 0 0
925998.83 6222917.10 -37.23 30 0 0
925996.47 6222918.91 -36.78 30 0 0
925929.77 6222924.24 -39.34 30 0 0
925955.72 6222925.45 -37.93 30 0 0
925983.57 6222926.62 -36.85 30 0 0
925988.68 6222926.85 -35.91 30 0 0
925994.09 6222923.25 -36.50 30 0 0
925999.51 6222922.91 -36.21 30 0 0
925998.81 6222926.73 -36.46 30 0 0
925934.46 6222929.12 -38.80 30 0 0
925972.47 6222930.61 -36.76 30 0 0
925980.95 6222928.94 -37.00 30 0 0
925987.65 6222930.82 -35.97 30 0 0
925988.93 6222930.69 -36.22 30 0 0
925941.89 6222936.97 -38.99 30 0 0
925975.42 6222932.28 -36.89 30 0 0
925982.82 6222934.52 -36.80 30 0 0
925989.40 6222936.94 -35.43 30 0 0
925994.89 6222933.08 -35.81 30 0 0
925991.77 6222935.20 -35.80 30 0 0
925992.45 6222934.87 -35.15 30 0 0
925995.21 6222933.06 -35.30 30 0 0
925999.02 6222933.58 -35.30 30 0 0
925999.54 6222933.10 -34.94 30 0 0
925963.42 6222939.72 -37.52 30 0 0
925985.87 6222938.87 -36.74 30 0 0
925987.28 6222941.16 -36.27 30 0 0
925993.14 6222937.53 -35.11 30 0 0
925992.33 6222941.34 -35.08 30 0 0
925992.99 6222941.55 -34.47 30 0 0
925998.56 6222937.43 -35.37 30 0 0
925999.04 6222937.56 -34.82 30 0 0
925995.55 6222939.71 -35.57 30 0 0
925996.83 6222942.09 -34.60 30 0 0
925997.60 6222941.36 -34.81 30 0 0
925996.10 6222939.18 -34.74 30 0 0
925968.45 6222946.58 -36.94 30 0 0
925971.30 6222944.56 -36.21 30 0 0
925973.79 6222946.65 -36.18 30 0 0
925994.44 6222943.77 -34.31 30 0 0
925999.38 6222943.35 -34.49 30 0 0
925999.12 6222944.56 -34.65 30 0 0
925967.81 6222950.37 -36.46 30 0 0
925965.44 6222948.06 -37.44 30 0 0
925983.30 6222947.56 -34.45 30 0 0
925984.79 6222949.75 -34.50 30 0 0
925984.91 6222949.33 -33.28 30 0 0
925987.51 6222947.47 -34.50 30 0 0
925987.08 6222951.14 -34.35 30 0 0
925989.33 6222949.62 -33.97 30 0 0
925992.75 6222948.35 -33.79 30 0 0
925993.24 6222947.17 -34.60 30 0 0
925990.40 6222949.96 -33.72 30 0 0
925994.18 6222950.58 -33.65 30 0 0
925994.48 6222949.56 -33.59 30 0 0
925996.82 6222947.96 -33.59 30 0 0
925996.40 6222951.89 -33.45 30 0 0
925998.81 6222950.28 -33.67 30 0 0
925999.93 6222951.08 -33.22 30 0 0
925936.44 6222953.10 -38.48 30 0 0
925984.67 6222955.68 -33.81 30 0 0
925984.56 6222954.09 -33.31 30 0 0
925986.00 6222956.30 -33.28 30 0 0
925988.36 6222954.70 -33.36 30 0 0
925991.81 6222952.19 -33.54 30 0 0
925992.64 6222953.95 -33.99 30 0 0
925993.91 6222956.30 -33.27 30 0 0
925993.96 6222954.95 -33.29 30 0 0
925996.16 6222953.51 -32.60 30 0 0
925997.57 6222955.75 -32.48 30 0 0
925997.73 6222954.18 -32.98 30 0 0
925960.79 6222957.94 -36.66 30 0 0
925983.90 6222959.58 -32.90 30 0 0
925986.37 6222957.93 -33.38 30 0 0
925987.57 6222960.33 -32.34 30 0 0
925987.85 6222958.87 -32.67 30 0 0
925989.24 6222961.11 -32.49 30 0 0
925990.19 6222957.33 -32.57 30 0 0
925991.39 6222957.99 -32.56 30 0 0
925991.66 6222959.51 -32.76 30 0 0
925992.98 6222960.26 -32.07 30 0 0
925995.26 6222958.79 -31.68 30 0 0
925995.22 6222957.30 -32.53 30 0 0
925999.56 6222958.39 -32.43 30 0 0
925996.85 6222960.89 -32.40 30 0 0
925997.01 6222960.04 -31.70 30 0 0
925939.18 6222965.04 -38.50 30 0 0
925958.60 6222966.34 -36.31 30 0 0
925964.63 6222962.51 -36.28 30 0 0
925961.57 6222963.92 -36.30 30 0 0
925965.85 6222964.28 -36.61 30 0 0
925978.20 6222964.99 -32.73 30 0 0
925983.22 6222965.09 -31.88 30 0 0
925989.35 6222962.51 -32.61 30 0 0
925987.39 6222966.18 -31.52 30 0 0
925991.04 6222963.72 -32.39 30 0 0
925993.38 6222962.22 -32.21 30 0 0
925994.43 6222962.45 -32.23 30 0 0
925990.71 6222964.77 -32.39 30 0 0
925994.79 6222964.45 -32.22 30 0 0
925998.49 6222963.26 -32.55 30 0 0
925998.36 6222962.31 -31.45 30 0 0
925995.96 6222964.86 -31.97 30 0 0
925999.61 6222965.68 -31.41 30 0 0
925953.95 6222971.83 -37.30 30 0 0
925957.31 6222970.76 -37.08 30 0 0
925955.11 6222968.29 -37.20 30 0 0
925955.49 6222967.60 -37.08 30 0 0
925957.35 6222969.60 -36.77 30 0 0
925958.69 6222971.91 -36.26 30 0 0
925963.31 6222967.13 -36.48 30 0 0
925961.11 6222970.28 -36.50 30 0 0
925962.36 6222970.97 -36.30 30 0 0
925964.65 6222969.44 -36.00 30 0 0
925964.84 6222968.19 -36.13 30 0 0
925968.18 6222967.17 -35.79 30 0 0
925966.84 6222972.01 -35.77 30 0 0
925966.42 6222970.34 -35.56 30 0 0
925968.72 6222968.83 -35.28 30 0 0
925970.18 6222971.06 -35.36 30 0 0
925972.29 6222968.46 -34.13 30 0 0
925970.08 6222969.89 -34.85 30 0 0
925973.65 6222970.74 -33.87 30 0 0
925973.69 6222969.15 -34.24 30 0 0
925975.21 6222971.45 -33.54 30 0 0
925982.78 6222972.09 -32.13 30 0 0
925984.69 6222968.64 -32.05 30 0 0
925988.96 6222968.29 -32.25 30 0 0
925989.93 6222968.67 -32.20 30 0 0
925992.13 6222967.30 -31.40 30 0 0
925994.18 6222968.60 -31.95 30 0 0
925991.39 6222970.86 -32.49 30 0 0
925996.49 6222967.16 -31.58 30 0 0
925997.26 6222967.15 -31.61 30 0 0
925995.09 6222972.00 -31.11 30 0 0
925998.81 6222969.59 -31.44 30 0 0
925953.04 6222975.65 -37.30 30 0 0
925955.34 6222974.12 -36.97 30 0 0
925957.23 6222976.30 -37.09 30 0 0
925956.32 6222974.63 -36.74 30 0 0
925958.64 6222973.09 -36.52 30 0 0
925962.85 6222972.52 -36.09 30 0 0
925960.85 6222975.59 -36.76 30 0 0
925961.91 6222976.31 -36.09 30 0 0
925960.51 6222974.05 -36.24 30 0 0
925964.31 6222974.74 -36.19 30 0 0
925964.46 6222973.57 -35.79 30 0 0
925967.83 6222972.59 -35.48 30 0 0
925965.81 6222975.85 -35.47 30 0 0
925968.21 6222974.29 -35.58 30 0 0
925969.40 6222974.84 -35.18 30 0 0
925971.46 6222972.15 -34.65 30 0 0
925970.02 6222976.95 -35.21 30 0 0
925971.73 6222973.35 -34.93 30 0 0
925973.05 6222975.66 -34.55 30 0 0
925973.36 6222974.87 -34.27 30 0 0
925975.63 6222973.44 -33.71 30 0 0
925976.99 6222975.71 -33.56 30 0 0
925976.62 6222973.68 -33.54 30 0 0
925978.16 6222976.06 -33.21 30 0 0
925980.46 6222974.62 -32.80 30 0 0
925981.84 6222976.88 -32.75 30 0 0
925982.28 6222976.19 -32.43 30 0 0
925980.50 6222973.53 -32.60 30 0 0
925984.57 6222974.78 -31.97 30 0 0
925987.96 6222972.66 -30.60 30 0 0
925985.85 6222977.09 -31.61 30 0 0
925985.26 6222974.75 -31.62 30 0 0
925989.30 6222976.13 -30.96 30 0 0
925989.27 6222974.94 -30.33 30 0 0
925993.56 6222976.01 -30.83 30 0 0
925993.95 6222975.78 -30.70 30 0 0
925996.96 6222973.71 -30.56 30 0 0
925999.50 6222972.18 -31.08 30 0 0
925996.49 6222974.23 -31.23 30 0 0
925997.75 6222977.01 -30.08 30 0 0
925998.23 6222976.01 -30.22 30 0 0
925948.97 6222981.74 -37.62 30 0 0
925954.95 6222979.50 -37.15 30 0 0
925952.65 6222980.99 -37.53 30 0 0
925954.83 6222977.88 -37.00 30 0 0
925958.43 6222977.17 -36.64 30 0 0
925956.37 6222981.75 -37.14 30 0 0
925956.26 6222980.12 -37.00 30 0 0
925959.94 6222979.34 -36.99 30 0 0
925960.26 6222980.84 -36.74 30 0 0
925961.84 6222982.05 -36.61 30 0 0
925962.12 6222977.94 -36.12 30 0 0
925964.11 6222980.62 -36.05 30 0 0
925963.60 6222978.64 -36.01 30 0 0
925966.00 6222977.10 -36.05 30 0 0
925965.03 6222980.87 -36.12 30 0 0
925967.39 6222979.37 -35.93 30 0 0
925968.79 6222981.72 -35.24 30 0 0
925969.02 6222980.72 -35.17 30 0 0
925967.68 6222978.43 -35.44 30 0 0
925970.75 6222977.12 -34.96 30 0 0
925974.64 6222978.13 -34.21 30 0 0
925974.71 6222977.15 -34.02 30 0 0
925971.38 6222979.23 -35.00 30 0 0
925973.21 6222981.88 -35.07 30 0 0
925973.69 6222981.83 -34.53 30 0 0
925972.32 6222979.57 -34.59 30 0 0
925978.73 6222978.27 -33.18 30 0 0
925979.51 6222978.32 -33.05 30 0 0
925975.97 6222980.42 -33.98 30 0 0
925976.43 6222979.69 -33.60 30 0 0
925977.78 6222981.96 -33.51 30 0 0
925983.57 6222978.49 -32.11 30 0 0
925980.11 6222980.53 -33.16 30 0 0
925981.05 6222980.78 -32.88 30 0 0
925983.38 6222979.36 -32.51 30 0 0
925984.68 6222981.66 -32.28 30 0 0
925987.05 6222977.50 -31.60 30 0 0
925985.29 6222981.14 -31.97 30 0 0
925987.58 6222979.77 -31.42 30 0 0
925988.93 6222982.03 -31.39 30 0 0
925988.36 6222979.78 -31.41 30 0 0
925991.18 6222977.44 -31.00 30 0 0
925994.88 6222978.29 -30.70 30 0 0
925992.22 6222980.87 -30.86 30 0 0
925992.47 6222979.72 -30.76 30 0 0
925995.41 6222978.39 -30.44 30 0 0
925999.80 6222978.66 -30.09 30 0 0
925996.45 6222980.96 -30.52 30 0 0
925996.71 6222980.67 -30.27 30 0 0
925999.14 6222979.24 -30.27 30 0 0
925942.77 6222985.32 -38.11 30 0 0
925948.05 6222987.09 -37.38 30 0 0
925952.78 6222982.43 -37.60 30 0 0
925950.55 6222985.46 -37.83 30 0 0
925954.46 6222984.80 -37.40 30 0 0
925952.15 6222986.27 -37.81 30 0 0
925953.89 6222983.38 -36.71 30 0 0
925957.94 6222982.32 -37.10 30 0 0
925966.57 6222983.10 -36.05 30 0 0
925970.09 6222984.04 -34.86 30 0 0
925971.73 6222986.59 -34.79 30 0 0
925970.65 6222983.46 -34.49 30 0 0
925977.48 6222982.88 -33.91 30 0 0
925976.04 6222986.98 -33.65 30 0 0
925976.27 6222986.70 -33.31 30 0 0
925975.01 6222984.39 -33.70 30 0 0
925978.87 6222985.13 -34.01 30 0 0
925979.68 6222984.66 -33.74 30 0 0
925981.88 6222983.34 -32.85 30 0 0
925982.36 6222983.06 -32.69 30 0 0
925983.23 6222985.61 -32.81 30 0 0
925983.97 6222985.68 -32.50 30 0 0
925986.57 6222983.44 -31.66 30 0 0
925989.90 6222982.24 -31.28 30 0 0
925986.31 6222984.31 -32.09 30 0 0
925987.57 6222986.62 -31.78 30 0 0
925988.14 6222985.99 -31.52 30 0 0
925993.65 6222983.08 -31.20 30 0 0
925994.06 6222982.36 -30.70 30 0 0
925990.52 6222984.59 -31.32 30 0 0
925991.82 6222986.88 -31.18 30 0 0
925991.20 6222984.52 -31.14 30 0 0
925992.68 6222987.03 -30.92 30 0 0
925997.75 6222983.25 -30.36 30 0 0
925998.33 6222983.35 -30.27 30 0 0
925995.11 6222985.63 -30.86 30 0 0
925995.37 6222984.63 -30.63 30 0 0
925999.22 6222985.81 -30.40 30 0 0
925999.65 6222985.61 -30.29 30 0 0
925938.14 6222991.42 -37.88 30 0 0
925940.50 6222989.88 -37.76 30 0 0
925940.58 6222988.31 -38.39 30 0 0
925941.87 6222990.66 -37.83 30 0 0
925944.04 6222987.68 -37.42 30 0 0
925951.35 6222991.91 -37.49 30 0 0
925953.76 6222990.40 -37.49 30 0 0
925953.43 6222988.61 -37.25 30 0 0
925954.99 6222990.76 -37.28 30 0 0
925957.26 6222989.36 -36.65 30 0 0
925973.72 6222988.37 -34.07 30 0 0
925979.84 6222988.08 -31.74 30 0 0
925978.75 6222992.03 -32.24 30 0 0
925977.12 6222989.41 -32.52 30 0 0
925978.81 6222991.74 -32.02 30 0 0
925984.77 6222988.38 -32.23 30 0 0
925982.18 6222989.88 -31.60 30 0 0
925985.19 6222988.02 -32.00 30 0 0
925989.33 6222988.33 -31.00 30 0 0
925986.04 6222990.69 -31.95 30 0 0
925986.49 6222990.68 -31.15 30 0 0
925988.98 6222989.25 -31.34 30 0 0
925990.25 6222991.56 -31.10 30 0 0
925990.76 6222990.72 -30.82 30 0 0
925993.26 6222989.30 -30.97 30 0 0
925994.48 6222991.63 -30.63 30 0 0
925993.92 6222989.34 -30.59 30 0 0
925996.37 6222987.94 -30.62 30 0 0
925996.80 6222987.18 -30.54 30 0 0
925997.78 6222990.81 -30.42 30 0 0
925999.31 6222991.87 -30.08 30 0 0
925998.06 6222989.49 -30.34 30 0 0
925939.76 6222993.63 -37.84 30 0 0
925941.32 6222995.78 -38.50 30 0 0
925947.23 6222992.11 -37.79 30 0 0
925948.84 6222994.52 -38.01 30 0 0
925950.22 6222996.80 -37.96 30 0 0
925972.72 6222995.88 -32.62 30 0 0
925977.20 6222996.66 -32.87 30 0 0
925977.62 6222995.74 -32.19 30 0 0
925982.72 6222993.04 -31.52 30 0 0
925983.58 6222992.11 -31.91 30 0 0
925981.43 6222996.73 -32.14 30 0 0
925980.07 6222994.32 -32.23 30 0 0
925981.65 6222996.69 -31.76 30 0 0
925980.37 6222994.39 -31.90 30 0 0
925984.07 6222995.31 -31.64 30 0 0
925984.98 6222994.63 -31.43 30 0 0
925987.35 6222993.29 -31.09 30 0 0
925987.83 6222992.94 -31.25 30 0 0
925986.28 6222996.92 -31.39 30 0 0
925988.65 6222995.58 -31.04 30 0 0
925989.25 6222995.77 -30.94 30 0 0
925992.05 6222993.01 -30.75 30 0 0
925991.74 6222994.39 -31.03 30 0 0
925992.94 6222996.72 -30.64 30 0 0
925993.38 6222995.50 -30.52 30 0 0
925995.40 6222992.15 -30.71 30 0 0
925999.02 6222993.14 -30.17 30 0 0
925995.81 6222994.16 -30.39 30 0 0
925996.58 6222994.49 -30.26 30 0 0
925997.08 6222996.46 -30.28 30 0 0
925922.39 6222999.76 -38.34 30 0 0
925933.85 6222997.41 -38.41 30 0 0
925962.59 6222999.38 -34.11 30 0 0
925967.15 6222999.68 -33.61 30 0 0
925974.08 6222998.14 -32.72 30 0 0
925974.63 6222998.12 -32.44 30 0 0
925978.98 6222998.12 -32.19 30 0 0
925978.41 6222998.99 -32.49 30 0 0
925982.71 6222999.03 -32.06 30 0 0
925983.24 6222999.40 -31.76 30 0 0
925985.67 6222998.05 -31.64 30 0 0
925987.68 6222999.42 -31.23 30 0 0
925990.06 6222998.10 -30.88 30 0 0
925990.49 6222998.08 -30.73 30 0 0
925994.56 6222997.84 -30.13 30 0 0
925994.31 6222999.61 -30.41 30 0 0
925997.92 6222997.28 -30.26 30 0 0
925998.45 6222999.13 -30.03 30 0 0
925999.11 6222999.61 -29.94 30 0 0
