928734.59 6221924.83 -34.21 30 0 0
928731.42 6221926.45 -34.19 30 0 0
928732.23 6221926.61 -34.48 30 0 0
928730.94 6221924.98 -34.07 30 0 0
928732.14 6221924.18 -34.01 30 0 0
928734.95 6221922.19 -33.91 30 0 0
928735.50 6221923.70 -34.35 30 0 0
928739.96 6221923.79 -33.98 30 0 0
928739.27 6221924.33 -33.87 30 0 0
928736.82 6221926.19 -34.53 30 0 0
928736.27 6221926.93 -34.01 30 0 0
928735.24 6221927.09 -33.75 30 0 0
928736.75 6221923.79 -33.81 30 0 0
928739.25 6221924.20 -33.59 30 0 0
928742.20 6221922.10 -34.23 30 0 0
928744.46 6221923.46 -33.98 30 0 0
928743.94 6221924.83 -33.91 30 0 0
928741.65 6221926.60 -33.99 30 0 0
928740.90 6221926.47 -33.93 30 0 0
928741.65 6221923.20 -33.48 30 0 0
928743.74 6221926.21 -33.35 30 0 0
928749.64 6221923.83 -33.59 30 0 0
928748.26 6221923.91 -33.45 30 0 0
928745.93 6221925.71 -33.65 30 0 0
928745.62 6221926.92 -33.77 30 0 0
928749.94 6221926.00 -33.27 30 0 0
928746.55 6221922.81 -33.27 30 0 0
928747.65 6221923.21 -33.38 30 0 0
928749.45 6221926.72 -32.80 30 0 0
928754.02 6221923.30 -33.44 30 0 0
928753.69 6221924.56 -33.39 30 0 0
928751.36 6221926.36 -33.60 30 0 0
928751.16 6221922.12 -33.06 30 0 0
928752.05 6221925.32 -33.02 30 0 0
928753.95 6221925.93 -32.67 30 0 0
928759.24 6221924.07 -33.07 30 0 0
928757.71 6221923.71 -32.89 30 0 0
928755.35 6221925.53 -33.22 30 0 0
928755.41 6221926.61 -33.02 30 0 0
928755.96 6221922.13 -32.97 30 0 0
928756.06 6221922.43 -32.82 30 0 0
928758.65 6221925.94 -32.63 30 0 0
928761.44 6221922.40 -33.49 30 0 0
928762.66 6221922.93 -33.29 30 0 0
928760.46 6221924.34 -32.29 30 0 0
928763.56 6221925.05 -32.40 30 0 0
928764.96 6221926.35 -32.37 30 0 0
928766.66 6221923.25 -32.26 30 0 0
928769.28 6221924.27 -32.59 30 0 0
928767.65 6221922.14 -32.70 30 0 0
928768.29 6221925.37 -32.22 30 0 0
928768.26 6221924.86 -32.09 30 0 0
928768.77 6221923.36 -32.26 30 0 0
928771.55 6221922.53 -32.68 30 0 0
928773.46 6221922.89 -32.97 30 0 0
928773.56 6221924.84 -32.77 30 0 0
928771.37 6221926.54 -32.43 30 0 0
928773.16 6221925.57 -32.00 30 0 0
928773.37 6221924.47 -31.77 30 0 0
928777.14 6221926.92 -32.22 30 0 0
928777.07 6221922.67 -31.79 30 0 0
928777.87 6221924.48 -31.84 30 0 0
928782.08 6221922.74 -32.09 30 0 0
928783.61 6221923.09 -31.86 30 0 0
928781.37 6221924.28 -31.62 30 0 0
928782.87 6221923.49 -31.46 30 0 0
928785.47 6221924.97 -32.02 30 0 0
928788.90 6221923.05 -31.82 30 0 0
928787.85 6221923.10 -31.52 30 0 0
928785.87 6221926.69 -31.24 30 0 0
928787.28 6221923.60 -31.25 30 0 0
928789.88 6221923.70 -31.18 30 0 0
928792.48 6221922.41 -31.18 30 0 0
928793.88 6221925.21 -30.94 30 0 0
928795.23 6221925.31 -31.46 30 0 0
928795.37 6221926.21 -30.86 30 0 0
928797.08 6221922.41 -30.98 30 0 0
928797.78 6221922.22 -31.02 30 0 0
928799.98 6221926.42 -30.66 30 0 0
928804.32 6221922.63 -30.99 30 0 0
928802.48 6221924.83 -30.60 30 0 0
928804.88 6221925.23 -30.61 30 0 0
928808.48 6221926.53 -30.89 30 0 0
928806.38 6221926.34 -30.32 30 0 0
928809.28 6221925.54 -30.27 30 0 0
928811.99 6221924.71 -30.76 30 0 0
928810.75 6221924.67 -30.66 30 0 0
928814.83 6221926.22 -30.59 30 0 0
928813.61 6221926.05 -30.39 30 0 0
928810.39 6221923.34 -30.49 30 0 0
928814.39 6221924.45 -30.34 30 0 0
928815.16 6221922.30 -30.78 30 0 0
928818.04 6221923.79 -30.74 30 0 0
928819.77 6221925.81 -30.31 30 0 0
928818.71 6221926.48 -30.45 30 0 0
928815.19 6221925.85 -30.14 30 0 0
928818.90 6221922.86 -30.04 30 0 0
928819.39 6221924.76 -29.93 30 0 0
928821.96 6221924.01 -30.39 30 0 0
928823.00 6221924.37 -29.77 30 0 0
928824.20 6221923.87 -29.90 30 0 0
928825.34 6221922.27 -30.00 30 0 0
928826.22 6221925.43 -29.88 30 0 0
928825.22 6221925.27 -29.74 30 0 0
928827.59 6221926.98 -29.26 30 0 0
928828.60 6221923.98 -29.50 30 0 0
928831.06 6221924.93 -29.76 30 0 0
928834.20 6221923.16 -29.85 30 0 0
928833.30 6221923.05 -29.55 30 0 0
928830.07 6221925.70 -29.87 30 0 0
928834.44 6221926.06 -29.63 30 0 0
928833.27 6221926.55 -29.36 30 0 0
928831.50 6221923.89 -29.36 30 0 0
928833.90 6221922.69 -29.59 30 0 0
928839.67 6221922.43 -29.67 30 0 0
928837.52 6221924.26 -29.57 30 0 0
928839.22 6221926.32 -29.42 30 0 0
928835.80 6221925.50 -29.31 30 0 0
928836.70 6221926.60 -29.28 30 0 0
928838.41 6221923.00 -29.27 30 0 0
928839.61 6221922.60 -29.29 30 0 0
928844.81 6221922.15 -29.75 30 0 0
928841.42 6221924.40 -29.14 30 0 0
928842.65 6221923.98 -29.66 30 0 0
928844.89 6221925.29 -29.50 30 0 0
928842.81 6221927.07 -29.10 30 0 0
928841.20 6221926.81 -29.20 30 0 0
928844.21 6221924.61 -29.16 30 0 0
928845.85 6221922.19 -29.75 30 0 0
928849.43 6221923.05 -29.66 30 0 0
928846.60 6221925.03 -29.55 30 0 0
928848.72 6221923.21 -29.78 30 0 0
928848.35 6221927.03 -29.20 30 0 0
928846.11 6221925.82 -29.22 30 0 0
928847.91 6221922.12 -29.25 30 0 0
928848.31 6221926.32 -28.80 30 0 0
928853.30 6221923.19 -29.36 30 0 0
928851.15 6221925.06 -29.37 30 0 0
928850.49 6221925.14 -29.16 30 0 0
928854.87 6221925.63 -29.37 30 0 0
928854.53 6221926.00 -28.88 30 0 0
928850.71 6221926.03 -29.00 30 0 0
928852.11 6221923.43 -28.82 30 0 0
928855.00 6221922.99 -29.13 30 0 0
928857.01 6221923.73 -29.30 30 0 0
928859.10 6221923.87 -29.15 30 0 0
928858.78 6221925.68 -28.83 30 0 0
928855.41 6221924.94 -28.88 30 0 0
928856.81 6221925.64 -28.47 30 0 0
928863.33 6221923.59 -28.89 30 0 0
928862.93 6221924.03 -29.06 30 0 0
928860.86 6221925.84 -28.75 30 0 0
928862.72 6221926.02 -28.74 30 0 0
928860.32 6221925.05 -28.71 30 0 0
928860.82 6221922.65 -28.73 30 0 0
928864.72 6221924.76 -28.48 30 0 0
928867.31 6221923.89 -28.60 30 0 0
928867.18 6221924.56 -28.65 30 0 0
928865.11 6221926.45 -28.57 30 0 0
928868.99 6221926.02 -28.90 30 0 0
928868.89 6221926.64 -28.75 30 0 0
928865.32 6221924.46 -28.76 30 0 0
928869.72 6221926.57 -28.27 30 0 0
928871.12 6221924.03 -28.56 30 0 0
928873.34 6221924.26 -28.57 30 0 0
928873.26 6221926.25 -28.68 30 0 0
928873.12 6221927.01 -28.50 30 0 0
928870.12 6221924.27 -28.52 30 0 0
928873.83 6221923.68 -28.44 30 0 0
928875.44 6221922.32 -28.46 30 0 0
928877.60 6221924.75 -28.49 30 0 0
928875.35 6221924.29 -28.52 30 0 0
928877.04 6221926.40 -28.84 30 0 0
928879.37 6221926.73 -28.23 30 0 0
928875.13 6221923.68 -28.63 30 0 0
928877.32 6221925.78 -28.31 30 0 0
928879.33 6221923.39 -28.34 30 0 0
928881.51 6221923.97 -28.40 30 0 0
928881.38 6221924.92 -28.71 30 0 0
928881.36 6221926.33 -28.28 30 0 0
928883.44 6221927.08 -28.53 30 0 0
928881.23 6221922.89 -28.39 30 0 0
928884.63 6221923.00 -28.11 30 0 0
928885.68 6221922.41 -28.24 30 0 0
928885.81 6221924.08 -28.23 30 0 0
928889.99 6221922.68 -28.03 30 0 0
928887.78 6221922.27 -28.70 30 0 0
928889.59 6221924.19 -28.27 30 0 0
928885.50 6221925.08 -28.33 30 0 0
928887.56 6221926.10 -28.16 30 0 0
928887.27 6221927.08 -28.24 30 0 0
928887.23 6221924.60 -28.21 30 0 0
928889.04 6221922.31 -28.05 30 0 0
928889.93 6221927.01 -27.74 30 0 0
928891.78 6221924.64 -27.76 30 0 0
928893.81 6221922.73 -27.87 30 0 0
928893.94 6221924.09 -27.96 30 0 0
928891.93 6221926.04 -27.95 30 0 0
928891.28 6221927.05 -27.86 30 0 0
928891.83 6221926.11 -28.01 30 0 0
928893.74 6221924.12 -27.97 30 0 0
928894.34 6221922.32 -28.12 30 0 0
928895.96 6221924.69 -27.70 30 0 0
928897.95 6221922.79 -27.90 30 0 0
928899.72 6221924.79 -27.84 30 0 0
928895.71 6221926.10 -27.99 30 0 0
928897.75 6221926.67 -27.53 30 0 0
928899.89 6221925.90 -27.77 30 0 0
928897.43 6221926.43 -27.65 30 0 0
928900.15 6221923.57 -27.53 30 0 0
928903.62 6221922.47 -28.16 30 0 0
928904.36 6221923.55 -27.88 30 0 0
928903.52 6221924.56 -27.59 30 0 0
928901.52 6221926.56 -27.65 30 0 0
928900.44 6221925.33 -27.50 30 0 0
928901.14 6221925.43 -27.61 30 0 0
928904.65 6221922.24 -27.65 30 0 0
928907.51 6221922.20 -27.56 30 0 0
928909.30 6221924.17 -27.39 30 0 0
928908.15 6221923.53 -27.67 30 0 0
928906.17 6221925.49 -27.63 30 0 0
928905.30 6221926.57 -27.61 30 0 0
928908.97 6221926.15 -27.07 30 0 0
928906.14 6221925.14 -27.34 30 0 0
928907.24 6221925.65 -27.61 30 0 0
928911.28 6221922.25 -27.58 30 0 0
928910.06 6221925.25 -27.63 30 0 0
928912.03 6221923.24 -27.49 30 0 0
928912.93 6221923.87 -27.46 30 0 0
928913.85 6221925.18 -27.33 30 0 0
928911.92 6221927.08 -27.01 30 0 0
928914.75 6221925.81 -27.25 30 0 0
928910.05 6221922.35 -27.57 30 0 0
928911.05 6221924.55 -27.61 30 0 0
928913.55 6221925.96 -27.29 30 0 0
928916.69 6221923.91 -27.59 30 0 0
928917.34 6221924.74 -27.20 30 0 0
928918.23 6221922.87 -27.27 30 0 0
928917.94 6221925.42 -27.40 30 0 0
928919.90 6221923.38 -27.26 30 0 0
928915.41 6221926.71 -27.10 30 0 0
928919.15 6221926.73 -27.25 30 0 0
928917.35 6221922.87 -27.19 30 0 0
928917.45 6221925.47 -27.40 30 0 0
928918.65 6221926.67 -27.14 30 0 0
928921.83 6221922.51 -27.29 30 0 0
928921.73 6221925.29 -26.99 30 0 0
928923.67 6221924.41 -27.00 30 0 0
928924.72 6221924.63 -26.88 30 0 0
928922.31 6221926.26 -27.22 30 0 0
928922.78 6221926.69 -27.02 30 0 0
928920.55 6221923.77 -27.27 30 0 0
928922.35 6221923.88 -27.01 30 0 0
928926.15 6221923.01 -26.77 30 0 0
928925.59 6221922.48 -27.22 30 0 0
928927.06 6221924.02 -26.80 30 0 0
928929.05 6221922.54 -27.18 30 0 0
928928.89 6221925.99 -26.80 30 0 0
928929.13 6221925.78 -26.75 30 0 0
928926.54 6221926.63 -26.98 30 0 0
928925.65 6221926.69 -26.64 30 0 0
928927.26 6221924.79 -26.90 30 0 0
928929.16 6221923.79 -26.70 30 0 0
928929.96 6221922.89 -26.82 30 0 0
928930.90 6221924.42 -26.80 30 0 0
928932.84 6221922.43 -26.86 30 0 0
928930.81 6221923.99 -26.82 30 0 0
928931.57 6221925.44 -26.78 30 0 0
928933.42 6221923.66 -26.99 30 0 0
928933.47 6221923.39 -26.67 30 0 0
928933.08 6221926.74 -26.66 30 0 0
928932.75 6221926.70 -26.59 30 0 0
928934.06 6221925.60 -26.70 30 0 0
928937.18 6221924.49 -26.33 30 0 0
928935.27 6221925.55 -26.71 30 0 0
928937.22 6221923.44 -26.36 30 0 0
928935.32 6221925.33 -26.62 30 0 0
928937.21 6221924.78 -27.00 30 0 0
928939.07 6221922.51 -26.52 30 0 0
928935.36 6221926.68 -26.52 30 0 0
928939.03 6221926.45 -26.32 30 0 0
928939.12 6221926.46 -26.02 30 0 0
928936.76 6221924.01 -26.58 30 0 0
928937.26 6221923.31 -26.49 30 0 0
928940.65 6221922.96 -26.31 30 0 0
928942.56 6221922.26 -26.07 30 0 0
928940.94 6221924.36 -26.09 30 0 0
928944.42 6221924.19 -25.98 30 0 0
928940.38 6221925.68 -26.17 30 0 0
928943.57 6221925.94 -26.12 30 0 0
928942.95 6221926.71 -26.16 30 0 0
928940.16 6221925.21 -26.18 30 0 0
928942.36 6221925.62 -26.27 30 0 0
928946.30 6221922.15 -25.94 30 0 0
928947.43 6221925.36 -25.83 30 0 0
928945.55 6221923.49 -26.08 30 0 0
928947.79 6221924.43 -25.92 30 0 0
928945.45 6221923.86 -25.95 30 0 0
928949.28 6221923.42 -26.15 30 0 0
928949.64 6221922.42 -26.01 30 0 0
928949.35 6221925.30 -25.96 30 0 0
928949.92 6221924.50 -25.78 30 0 0
928947.32 6221925.79 -25.92 30 0 0
928949.67 6221926.37 -25.90 30 0 0
928948.07 6221926.53 -25.71 30 0 0
928946.67 6221923.43 -26.06 30 0 0
928952.36 6221923.40 -25.70 30 0 0
928951.53 6221924.30 -25.82 30 0 0
928951.22 6221923.16 -25.60 30 0 0
928954.70 6221922.32 -25.84 30 0 0
928953.10 6221925.11 -25.70 30 0 0
928951.81 6221926.40 -25.66 30 0 0
928951.47 6221924.84 -25.65 30 0 0
928955.64 6221922.21 -25.83 30 0 0
928957.21 6221923.03 -25.52 30 0 0
928956.58 6221924.24 -25.72 30 0 0
928958.45 6221922.15 -25.58 30 0 0
928956.28 6221922.95 -25.74 30 0 0
928959.07 6221927.06 -25.44 30 0 0
928961.28 6221923.86 -25.52 30 0 0
928965.58 6221922.57 -25.47 30 0 0
928968.28 6221926.57 -25.03 30 0 0
928970.39 6221922.88 -25.11 30 0 0
928972.98 6221926.38 -24.87 30 0 0
928977.28 6221925.59 -24.93 30 0 0
928982.19 6221924.80 -24.34 30 0 0
928986.29 6221924.31 -24.34 30 0 0
928991.10 6221923.22 -24.38 30 0 0
928993.19 6221926.13 -23.92 30 0 0
928994.90 6221922.83 -24.01 30 0 0
928392.43 6221927.68 -44.37 30 0 0
928413.54 6221928.22 -43.68 30 0 0
928425.85 6221931.15 -42.41 30 0 0
928444.86 6221928.59 -42.81 30 0 0
928457.96 6221931.91 -42.71 30 0 0
928464.48 6221927.23 -42.38 30 0 0
928473.78 6221927.14 -42.30 30 0 0
928482.28 6221928.56 -41.64 30 0 0
928486.89 6221929.17 -41.21 30 0 0
928495.99 6221930.09 -41.36 30 0 0
928499.89 6221929.00 -41.07 30 0 0
928513.20 6221928.33 -41.14 30 0 0
928516.40 6221929.73 -40.76 30 0 0
928524.71 6221929.85 -40.26 30 0 0
928528.11 6221927.36 -40.82 30 0 0
928528.81 6221931.66 -40.06 30 0 0
928532.91 6221928.97 -39.77 30 0 0
928536.91 6221931.38 -40.08 30 0 0
928540.72 6221928.48 -40.05 30 0 0
928546.22 6221930.10 -40.27 30 0 0
928553.63 6221929.41 -39.78 30 0 0
928560.33 6221930.63 -39.68 30 0 0
928564.84 6221927.33 -39.59 30 0 0
928566.73 6221929.94 -39.66 30 0 0
928574.13 6221930.86 -39.39 30 0 0
928578.54 6221927.36 -39.04 30 0 0
928579.94 6221930.77 -39.22 30 0 0
928584.05 6221927.77 -39.09 30 0 0
928587.84 6221930.98 -39.32 30 0 0
928592.15 6221927.69 -39.52 30 0 0
928592.84 6221931.80 -38.95 30 0 0
928596.85 6221928.80 -39.28 30 0 0
928601.25 6221931.31 -39.00 30 0 0
928605.36 6221928.12 -38.96 30 0 0
928610.06 6221929.83 -38.80 30 0 0
928614.66 6221931.84 -38.39 30 0 0
928618.87 6221928.75 -38.46 30 0 0
928623.16 6221930.76 -38.28 30 0 0
928629.13 6221930.32 -38.90 30 0 0
928627.27 6221927.66 -37.99 30 0 0
928631.97 6221929.58 -38.01 30 0 0
928635.97 6221929.25 -38.59 30 0 0
928637.45 6221931.55 -38.30 30 0 0
928635.97 6221931.38 -37.97 30 0 0
928643.69 6221927.14 -38.46 30 0 0
928640.08 6221928.39 -37.91 30 0 0
928645.28 6221930.50 -37.67 30 0 0
928649.18 6221932.01 -37.79 30 0 0
928649.39 6221927.61 -37.65 30 0 0
928650.08 6221931.41 -37.36 30 0 0
928653.09 6221928.92 -37.76 30 0 0
928654.68 6221931.02 -37.22 30 0 0
928657.23 6221931.72 -38.02 30 0 0
928658.08 6221931.33 -37.46 30 0 0
928659.59 6221930.63 -37.32 30 0 0
928663.71 6221927.58 -37.65 30 0 0
928664.60 6221930.16 -37.83 30 0 0
928662.19 6221928.24 -37.40 30 0 0
928664.29 6221930.14 -37.14 30 0 0
928668.82 6221927.82 -38.01 30 0 0
928669.11 6221929.00 -37.99 30 0 0
928665.99 6221930.05 -37.22 30 0 0
928669.09 6221929.75 -37.17 30 0 0
928672.90 6221928.54 -37.43 30 0 0
928670.73 6221931.20 -37.30 30 0 0
928673.93 6221931.02 -37.87 30 0 0
928674.00 6221929.06 -36.99 30 0 0
928678.71 6221930.31 -37.58 30 0 0
928677.61 6221927.37 -37.23 30 0 0
928676.32 6221931.82 -37.31 30 0 0
928675.20 6221929.07 -36.82 30 0 0
928679.00 6221928.67 -36.99 30 0 0
928679.20 6221930.67 -36.71 30 0 0
928684.67 6221930.27 -37.03 30 0 0
928683.12 6221928.04 -37.27 30 0 0
928682.32 6221929.13 -36.84 30 0 0
928683.55 6221931.61 -36.78 30 0 0
928683.31 6221927.68 -36.70 30 0 0
928684.00 6221928.38 -36.69 30 0 0
928687.63 6221929.32 -37.09 30 0 0
928687.16 6221928.69 -36.84 30 0 0
928689.19 6221931.54 -36.89 30 0 0
928688.37 6221931.51 -36.97 30 0 0
928688.10 6221929.79 -36.39 30 0 0
928688.71 6221928.19 -36.36 30 0 0
928690.21 6221927.66 -36.51 30 0 0
928691.75 6221929.88 -36.36 30 0 0
928692.66 6221928.89 -36.68 30 0 0
928694.26 6221931.08 -36.39 30 0 0
928692.20 6221931.70 -36.19 30 0 0
928693.51 6221927.60 -36.16 30 0 0
928695.92 6221927.42 -36.64 30 0 0
928695.16 6221927.24 -36.32 30 0 0
928696.62 6221929.51 -36.58 30 0 0
928697.12 6221929.99 -36.83 30 0 0
928699.51 6221928.37 -36.87 30 0 0
928696.41 6221928.81 -36.02 30 0 0
928696.41 6221931.51 -35.88 30 0 0
928701.78 6221929.95 -36.61 30 0 0
928701.04 6221930.60 -36.90 30 0 0
928704.23 6221928.26 -36.33 30 0 0
928703.62 6221931.98 -35.49 30 0 0
928701.21 6221930.82 -35.79 30 0 0
928701.41 6221930.92 -35.58 30 0 0
928705.43 6221927.99 -36.14 30 0 0
928705.93 6221930.37 -35.73 30 0 0
928709.18 6221928.98 -35.93 30 0 0
928706.84 6221930.64 -35.84 30 0 0
928705.32 6221927.93 -35.67 30 0 0
928705.91 6221930.63 -35.21 30 0 0
928709.72 6221929.84 -35.12 30 0 0
928710.61 6221928.00 -35.91 30 0 0
928714.86 6221928.38 -35.34 30 0 0
928714.57 6221928.88 -34.96 30 0 0
928710.95 6221931.04 -35.10 30 0 0
928712.10 6221930.65 -35.49 30 0 0
928710.92 6221930.14 -34.99 30 0 0
928714.22 6221931.65 -34.64 30 0 0
928719.41 6221927.93 -35.23 30 0 0
928718.67 6221929.31 -35.00 30 0 0
928716.33 6221931.03 -35.06 30 0 0
928716.21 6221931.02 -34.77 30 0 0
928715.62 6221929.65 -34.61 30 0 0
928718.32 6221928.75 -34.67 30 0 0
928724.28 6221928.36 -34.79 30 0 0
928720.88 6221930.53 -35.09 30 0 0
928723.22 6221928.78 -34.98 30 0 0
928720.34 6221931.42 -34.76 30 0 0
928724.95 6221930.85 -34.54 30 0 0
928720.52 6221929.16 -34.51 30 0 0
928722.92 6221930.87 -34.32 30 0 0
928729.05 6221928.21 -34.42 30 0 0
928728.24 6221929.24 -34.44 30 0 0
928725.81 6221931.07 -34.95 30 0 0
928729.98 6221931.29 -33.94 30 0 0
928725.33 6221928.57 -34.15 30 0 0
928726.83 6221927.97 -34.11 30 0 0
928733.94 6221928.70 -34.14 30 0 0
928732.78 6221928.99 -33.97 30 0 0
928730.44 6221930.78 -34.18 30 0 0
928734.46 6221931.08 -33.80 30 0 0
928730.33 6221928.58 -33.81 30 0 0
928731.33 6221929.98 -33.73 30 0 0
928738.57 6221928.25 -34.10 30 0 0
928737.89 6221929.54 -34.03 30 0 0
928735.60 6221931.32 -34.13 30 0 0
928739.97 6221930.66 -33.92 30 0 0
928739.59 6221931.61 -33.83 30 0 0
928735.04 6221927.99 -33.58 30 0 0
928735.83 6221932.09 -33.47 30 0 0
928738.03 6221931.90 -33.39 30 0 0
928739.74 6221927.70 -33.39 30 0 0
928739.84 6221929.10 -33.42 30 0 0
928743.30 6221928.72 -33.95 30 0 0
928742.31 6221928.83 -33.64 30 0 0
928743.96 6221930.95 -33.68 30 0 0
928742.63 6221931.51 -33.33 30 0 0
928744.13 6221931.01 -33.15 30 0 0
928744.44 6221927.11 -33.23 30 0 0
928747.63 6221927.79 -33.42 30 0 0
928747.33 6221929.39 -33.37 30 0 0
928749.20 6221930.07 -33.15 30 0 0
928745.00 6221931.23 -33.67 30 0 0
928749.11 6221931.40 -32.88 30 0 0
928747.24 6221930.92 -32.82 30 0 0
928748.14 6221928.02 -33.02 30 0 0
928751.40 6221928.34 -33.43 30 0 0
928753.11 6221928.41 -33.14 30 0 0
928753.12 6221930.39 -33.13 30 0 0
928752.24 6221930.63 -32.68 30 0 0
928752.64 6221930.23 -32.63 30 0 0
928756.98 6221927.67 -33.26 30 0 0
928757.28 6221929.22 -33.09 30 0 0
928755.04 6221931.01 -33.06 30 0 0
928756.55 6221927.33 -32.77 30 0 0
928756.94 6221929.94 -32.37 30 0 0
928760.70 6221927.87 -32.85 30 0 0
928763.01 6221928.84 -32.80 30 0 0
928762.48 6221929.86 -32.25 30 0 0
928764.15 6221931.97 -32.21 30 0 0
928761.05 6221929.24 -32.27 30 0 0
928761.35 6221930.05 -32.02 30 0 0
928769.89 6221927.38 -32.04 30 0 0
928765.07 6221931.05 -32.33 30 0 0
928769.28 6221931.28 -31.99 30 0 0
928765.25 6221931.25 -31.83 30 0 0
928766.55 6221928.86 -31.95 30 0 0
928769.15 6221928.46 -31.86 30 0 0
928773.67 6221931.40 -31.81 30 0 0
928771.06 6221928.76 -31.65 30 0 0
928773.55 6221930.17 -31.43 30 0 0
928776.26 6221928.18 -31.50 30 0 0
928777.46 6221927.28 -31.56 30 0 0
928779.15 6221932.08 -30.93 30 0 0
928780.85 6221930.83 -31.35 30 0 0
928780.66 6221928.38 -31.22 30 0 0
928782.06 6221929.49 -31.13 30 0 0
928785.18 6221930.82 -31.41 30 0 0
928785.77 6221927.29 -31.14 30 0 0
928786.36 6221931.20 -30.97 30 0 0
928788.66 6221931.20 -30.80 30 0 0
928791.64 6221927.20 -31.69 30 0 0
928794.64 6221929.20 -31.31 30 0 0
928792.94 6221927.15 -31.67 30 0 0
928791.12 6221931.03 -31.25 30 0 0
928790.07 6221928.30 -31.01 30 0 0
928790.17 6221927.40 -31.06 30 0 0
928793.16 6221931.21 -30.61 30 0 0
928794.67 6221930.61 -30.59 30 0 0
928796.90 6221927.40 -31.26 30 0 0
928795.85 6221930.82 -31.07 30 0 0
928797.23 6221931.03 -31.05 30 0 0
928798.17 6221930.12 -30.49 30 0 0
928798.47 6221927.72 -30.76 30 0 0
928802.17 6221930.71 -30.89 30 0 0
928802.67 6221929.33 -30.51 30 0 0
928802.77 6221930.23 -30.26 30 0 0
928807.47 6221931.74 -30.07 30 0 0
928807.88 6221929.14 -30.10 30 0 0
928812.17 6221930.63 -30.00 30 0 0
928811.28 6221928.95 -30.15 30 0 0
928812.18 6221929.35 -30.25 30 0 0
928816.52 6221928.29 -30.40 30 0 0
928815.28 6221928.14 -30.28 30 0 0
928818.42 6221929.54 -30.10 30 0 0
928815.17 6221931.98 -29.89 30 0 0
928815.18 6221930.26 -30.04 30 0 0
928817.28 6221928.26 -30.02 30 0 0
928818.99 6221927.26 -29.77 30 0 0
928821.78 6221927.75 -30.03 30 0 0
928824.63 6221929.30 -30.09 30 0 0
928821.34 6221931.58 -29.58 30 0 0
928820.12 6221931.60 -29.95 30 0 0
928822.19 6221928.57 -29.63 30 0 0
928823.98 6221929.98 -29.48 30 0 0
928826.87 6221927.37 -29.75 30 0 0
928828.17 6221930.38 -29.46 30 0 0
928826.82 6221930.84 -29.38 30 0 0
928827.09 6221927.68 -29.65 30 0 0
928827.88 6221931.38 -29.22 30 0 0
928829.88 6221931.59 -29.12 30 0 0
928831.09 6221928.43 -29.46 30 0 0
928830.35 6221928.51 -29.40 30 0 0
928832.07 6221930.52 -29.10 30 0 0
928834.91 6221928.68 -29.56 30 0 0
928831.49 6221927.99 -29.36 30 0 0
928831.89 6221928.49 -29.20 30 0 0
928834.29 6221931.80 -29.09 30 0 0
928836.07 6221928.21 -29.86 30 0 0
928838.53 6221929.59 -29.61 30 0 0
928835.64 6221931.75 -29.81 30 0 0
928836.39 6221930.70 -28.89 30 0 0
928839.49 6221930.61 -29.16 30 0 0
928842.28 6221927.44 -29.38 30 0 0
928840.13 6221929.33 -29.43 30 0 0
928844.46 6221929.21 -29.37 30 0 0
928844.01 6221929.46 -29.12 30 0 0
928841.84 6221931.40 -29.37 30 0 0
928840.28 6221931.58 -29.27 30 0 0
928840.20 6221927.71 -29.01 30 0 0
928844.09 6221930.62 -28.90 30 0 0
928844.40 6221929.42 -28.80 30 0 0
928846.64 6221927.28 -29.11 30 0 0
928848.35 6221929.91 -29.41 30 0 0
928848.02 6221930.36 -29.41 30 0 0
928848.90 6221931.63 -28.65 30 0 0
928849.00 6221929.83 -28.83 30 0 0
928852.36 6221927.97 -29.22 30 0 0
928850.50 6221927.95 -29.14 30 0 0
928852.22 6221930.00 -29.07 30 0 0
928854.10 6221930.00 -29.04 30 0 0
928850.15 6221931.83 -28.81 30 0 0
928852.90 6221928.63 -28.91 30 0 0
928853.40 6221929.94 -28.69 30 0 0
928856.60 6221927.67 -29.23 30 0 0
928856.24 6221928.05 -28.84 30 0 0
928856.34 6221930.46 -29.08 30 0 0
928858.38 6221930.48 -28.39 30 0 0
928857.00 6221930.54 -28.19 30 0 0
928858.31 6221928.95 -28.40 30 0 0
928860.64 6221927.91 -28.70 30 0 0
928864.41 6221928.12 -28.95 30 0 0
928862.38 6221929.93 -28.55 30 0 0
928860.41 6221928.67 -28.79 30 0 0
928862.16 6221930.67 -28.62 30 0 0
928860.91 6221927.55 -28.47 30 0 0
928863.11 6221928.76 -28.17 30 0 0
928866.87 6221928.43 -28.27 30 0 0
928868.82 6221928.42 -28.79 30 0 0
928866.81 6221930.25 -28.41 30 0 0
928866.44 6221931.04 -28.43 30 0 0
928865.61 6221929.76 -28.37 30 0 0
928868.21 6221928.57 -28.29 30 0 0
928869.61 6221931.57 -27.94 30 0 0
928874.83 6221929.11 -28.72 30 0 0
928871.04 6221928.98 -28.65 30 0 0
928870.61 6221930.35 -28.38 30 0 0
928872.79 6221931.01 -28.58 30 0 0
928872.82 6221928.28 -28.27 30 0 0
928873.42 6221928.68 -28.30 30 0 0
928875.04 6221928.21 -28.35 30 0 0
928879.29 6221928.33 -28.56 30 0 0
928879.02 6221929.22 -28.20 30 0 0
928875.04 6221930.45 -28.18 30 0 0
928877.03 6221931.07 -27.83 30 0 0
928875.61 6221932.08 -28.12 30 0 0
928878.12 6221927.79 -28.22 30 0 0
928878.81 6221930.69 -27.92 30 0 0
928883.12 6221928.34 -28.25 30 0 0
928881.08 6221930.29 -28.27 30 0 0
928880.81 6221931.17 -27.95 30 0 0
928881.11 6221931.70 -27.79 30 0 0
928882.22 6221927.40 -28.27 30 0 0
928883.12 6221927.60 -28.12 30 0 0
928885.24 6221929.02 -28.18 30 0 0
928887.53 6221928.31 -28.23 30 0 0
928889.25 6221929.06 -28.05 30 0 0
928885.55 6221930.21 -27.97 30 0 0
928889.32 6221930.28 -28.08 30 0 0
928885.01 6221931.29 -27.80 30 0 0
928885.02 6221931.10 -27.71 30 0 0
928886.12 6221929.90 -28.06 30 0 0
928887.83 6221927.11 -27.93 30 0 0
928893.72 6221928.02 -27.82 30 0 0
928893.06 6221929.06 -27.87 30 0 0
928893.41 6221930.05 -27.78 30 0 0
928891.06 6221930.99 -27.72 30 0 0
928891.42 6221932.05 -27.89 30 0 0
928890.82 6221931.12 -27.63 30 0 0
928892.02 6221931.52 -27.55 30 0 0
928894.73 6221930.12 -27.77 30 0 0
928897.05 6221928.91 -27.40 30 0 0
928899.73 6221929.79 -27.49 30 0 0
928897.89 6221927.92 -27.97 30 0 0
928895.04 6221930.95 -27.61 30 0 0
928895.22 6221931.98 -27.60 30 0 0
928898.82 6221930.95 -27.56 30 0 0
928899.07 6221931.73 -27.47 30 0 0
928896.23 6221928.53 -27.61 30 0 0
928898.53 6221931.03 -27.36 30 0 0
928901.70 6221927.84 -27.60 30 0 0
928903.34 6221928.49 -27.40 30 0 0
928903.63 6221929.45 -27.36 30 0 0
928902.31 6221930.63 -27.46 30 0 0
928900.43 6221930.54 -27.31 30 0 0
928902.33 6221928.04 -27.45 30 0 0
928903.93 6221929.34 -27.51 30 0 0
928906.97 6221928.24 -27.43 30 0 0
928905.56 6221927.55 -27.64 30 0 0
928907.39 6221929.44 -27.33 30 0 0
928908.82 6221930.13 -27.05 30 0 0
928905.42 6221931.49 -27.53 30 0 0
928907.27 6221932.04 -27.08 30 0 0
928909.02 6221931.09 -27.16 30 0 0
928909.44 6221929.05 -27.03 30 0 0
928912.04 6221929.79 -27.39 30 0 0
928910.76 6221928.19 -27.28 30 0 0
928910.96 6221929.05 -27.04 30 0 0
928914.00 6221927.72 -27.16 30 0 0
928913.88 6221931.72 -27.21 30 0 0
928912.79 6221931.01 -27.02 30 0 0
928910.44 6221929.96 -27.06 30 0 0
928913.94 6221928.36 -27.25 30 0 0
928914.94 6221929.46 -26.88 30 0 0
928917.24 6221928.66 -27.00 30 0 0
928915.83 6221929.67 -27.08 30 0 0
928915.93 6221930.50 -26.84 30 0 0
928919.79 6221927.29 -26.99 30 0 0
928918.67 6221929.01 -27.04 30 0 0
928916.78 6221930.94 -26.71 30 0 0
928922.27 6221930.09 -26.71 30 0 0
928920.40 6221928.22 -27.04 30 0 0
928924.63 6221928.60 -26.79 30 0 0
928924.16 6221928.17 -27.05 30 0 0
928924.79 6221929.62 -26.88 30 0 0
928922.95 6221930.08 -26.71 30 0 0
928921.05 6221932.08 -26.60 30 0 0
928920.52 6221930.94 -26.93 30 0 0
928920.48 6221931.99 -26.95 30 0 0
928924.81 6221932.00 -26.60 30 0 0
928920.54 6221929.48 -26.82 30 0 0
928922.04 6221929.78 -26.64 30 0 0
928923.35 6221927.68 -26.96 30 0 0
928927.21 6221927.84 -26.90 30 0 0
928926.68 6221927.62 -26.96 30 0 0
928929.08 6221929.72 -26.59 30 0 0
928928.56 6221929.45 -26.55 30 0 0
928928.64 6221930.92 -26.78 30 0 0
928926.67 6221931.48 -26.56 30 0 0
928926.80 6221930.99 -26.69 30 0 0
928926.14 6221931.49 -26.67 30 0 0
928927.04 6221930.79 -26.23 30 0 0
928931.20 6221928.72 -26.47 30 0 0
928930.99 6221927.68 -26.56 30 0 0
928930.54 6221928.77 -26.35 30 0 0
928933.41 6221927.41 -26.81 30 0 0
928934.95 6221928.63 -26.46 30 0 0
928933.59 6221929.86 -26.16 30 0 0
928932.40 6221930.72 -26.40 30 0 0
928933.08 6221930.61 -26.23 30 0 0
928931.71 6221931.97 -26.40 30 0 0
928930.35 6221928.90 -26.41 30 0 0
928930.55 6221928.10 -26.41 30 0 0
928934.15 6221930.71 -26.23 30 0 0
928937.24 6221928.56 -26.25 30 0 0
928938.52 6221927.70 -26.12 30 0 0
928937.65 6221930.22 -26.47 30 0 0
928939.53 6221928.09 -26.19 30 0 0
928935.99 6221930.85 -26.24 30 0 0
928935.46 6221931.86 -26.44 30 0 0
928939.55 6221932.08 -26.16 30 0 0
928937.69 6221931.68 -26.30 30 0 0
928935.65 6221930.41 -26.42 30 0 0
928937.36 6221927.81 -26.22 30 0 0
928939.86 6221928.32 -26.27 30 0 0
928940.39 6221929.65 -26.15 30 0 0
928942.27 6221927.53 -25.90 30 0 0
928941.10 6221928.73 -26.05 30 0 0
928941.41 6221929.99 -26.04 30 0 0
928943.00 6221930.59 -25.78 30 0 0
928944.85 6221928.59 -25.96 30 0 0
928942.96 6221929.53 -25.98 30 0 0
928944.81 6221927.44 -25.85 30 0 0
928944.12 6221928.62 -25.85 30 0 0
928942.26 6221930.75 -26.06 30 0 0
928944.85 6221931.42 -25.84 30 0 0
928942.05 6221930.42 -25.88 30 0 0
928944.86 6221928.33 -25.84 30 0 0
928945.45 6221927.84 -25.92 30 0 0
928946.70 6221929.33 -25.74 30 0 0
928946.01 6221930.52 -25.76 30 0 0
928949.95 6221928.46 -25.69 30 0 0
928945.06 6221929.43 -26.04 30 0 0
928949.56 6221927.54 -25.91 30 0 0
928951.25 6221927.16 -25.69 30 0 0
928952.36 6221931.74 -25.60 30 0 0
928954.36 6221928.55 -25.34 30 0 0
928961.66 6221930.96 -24.97 30 0 0
928963.97 6221927.37 -25.07 30 0 0
928966.67 6221930.87 -24.68 30 0 0
928970.77 6221930.28 -24.70 30 0 0
928975.57 6221929.79 -24.80 30 0 0
928979.58 6221929.20 -24.54 30 0 0
928984.58 6221927.91 -24.23 30 0 0
928986.68 6221930.82 -23.83 30 0 0
928988.29 6221927.62 -24.12 30 0 0
928994.18 6221931.43 -23.47 30 0 0
928998.69 6221930.34 -22.85 30 0 0
928998.79 6221929.14 -23.12 30 0 0
928409.12 6221936.92 -43.33 30 0 0
928428.44 6221935.06 -42.98 30 0 0
928518.29 6221934.94 -40.79 30 0 0
928521.20 6221932.65 -40.73 30 0 0
928521.29 6221936.45 -40.45 30 0 0
928524.90 6221934.26 -40.25 30 0 0
928529.70 6221936.87 -39.86 30 0 0
928533.00 6221934.37 -40.45 30 0 0
928537.70 6221935.98 -39.78 30 0 0
928541.81 6221933.09 -40.10 30 0 0
928545.71 6221935.40 -39.73 30 0 0
928549.72 6221932.41 -39.92 30 0 0
928551.31 6221936.81 -39.55 30 0 0
928555.92 6221933.72 -39.48 30 0 0
928558.51 6221935.93 -39.40 30 0 0
928562.62 6221932.93 -39.81 30 0 0
928569.72 6221934.15 -39.41 30 0 0
928571.72 6221936.65 -39.15 30 0 0
928575.83 6221933.76 -39.36 30 0 0
928583.53 6221934.28 -39.23 30 0 0
928588.83 6221934.79 -38.95 30 0 0
928596.84 6221934.51 -38.78 30 0 0
928601.94 6221935.82 -38.65 30 0 0
928605.95 6221932.92 -38.94 30 0 0
928610.55 6221934.93 -38.52 30 0 0
928614.95 6221936.64 -38.24 30 0 0
928619.06 6221933.65 -38.13 30 0 0
928623.75 6221935.66 -38.07 30 0 0
928627.86 6221932.57 -38.06 30 0 0
928634.00 6221936.94 -38.16 30 0 0
928631.96 6221934.38 -37.99 30 0 0
928639.62 6221936.93 -37.90 30 0 0
928636.96 6221936.49 -37.60 30 0 0
928640.44 6221932.70 -38.35 30 0 0
928641.90 6221935.00 -38.20 30 0 0
928641.17 6221933.50 -37.80 30 0 0
928645.89 6221932.78 -38.25 30 0 0
928645.07 6221935.11 -37.68 30 0 0
928654.73 6221933.89 -37.86 30 0 0
928653.07 6221935.42 -37.40 30 0 0
928654.17 6221934.42 -37.42 30 0 0
928655.70 6221935.69 -37.97 30 0 0
928659.70 6221936.46 -37.71 30 0 0
928657.78 6221934.83 -37.31 30 0 0
928657.97 6221936.13 -37.20 30 0 0
928664.01 6221935.17 -37.23 30 0 0
928662.08 6221933.04 -37.28 30 0 0
928662.48 6221934.54 -37.17 30 0 0
928667.34 6221934.90 -37.59 30 0 0
928669.57 6221935.72 -37.29 30 0 0
928667.18 6221935.25 -37.16 30 0 0
928667.28 6221933.95 -36.92 30 0 0
928671.46 6221932.55 -37.86 30 0 0
928673.61 6221936.39 -36.82 30 0 0
928671.18 6221936.86 -36.79 30 0 0
928671.19 6221932.16 -37.01 30 0 0
928672.09 6221933.66 -36.79 30 0 0
928675.53 6221933.23 -37.33 30 0 0
928679.26 6221937.05 -37.08 30 0 0
928676.74 6221935.63 -36.99 30 0 0
928675.19 6221933.77 -36.65 30 0 0
928676.89 6221932.97 -36.70 30 0 0
928679.68 6221936.88 -36.32 30 0 0
928680.25 6221932.54 -37.28 30 0 0
928680.19 6221935.98 -36.52 30 0 0
928681.89 6221932.58 -36.42 30 0 0
928684.20 6221932.79 -36.41 30 0 0
928684.89 6221936.49 -36.02 30 0 0
928685.99 6221933.07 -36.81 30 0 0
928685.15 6221933.81 -36.34 30 0 0
928687.61 6221935.25 -36.36 30 0 0
928686.43 6221936.40 -36.46 30 0 0
928686.90 6221932.29 -36.10 30 0 0
928688.09 6221934.50 -35.98 30 0 0
928689.79 6221936.20 -35.86 30 0 0
928693.13 6221932.50 -36.68 30 0 0
928690.72 6221934.11 -36.70 30 0 0
928690.03 6221933.66 -36.32 30 0 0
928694.73 6221934.68 -36.35 30 0 0
928691.36 6221936.31 -36.10 30 0 0
928692.32 6221936.30 -36.38 30 0 0
928691.60 6221932.10 -36.06 30 0 0
928693.19 6221936.81 -35.45 30 0 0
928694.60 6221935.91 -35.70 30 0 0
928698.65 6221932.22 -36.88 30 0 0
928698.00 6221932.25 -36.62 30 0 0
928695.67 6221933.84 -36.38 30 0 0
928699.71 6221934.36 -35.91 30 0 0
928697.21 6221936.05 -36.36 30 0 0
928697.10 6221933.81 -35.72 30 0 0
928699.40 6221935.32 -35.38 30 0 0
928704.39 6221935.13 -35.22 30 0 0
928701.32 6221937.06 -35.30 30 0 0
928701.75 6221936.96 -36.32 30 0 0
928701.30 6221935.42 -34.91 30 0 0
928704.40 6221934.83 -34.69 30 0 0
928708.52 6221932.76 -35.43 30 0 0
928707.53 6221933.04 -35.14 30 0 0
928705.17 6221934.72 -35.17 30 0 0
928709.22 6221935.15 -34.63 30 0 0
928706.77 6221936.89 -35.05 30 0 0
928705.51 6221932.63 -35.09 30 0 0
928708.81 6221934.54 -34.51 30 0 0
928713.82 6221932.74 -34.95 30 0 0
928710.18 6221935.45 -34.98 30 0 0
928712.56 6221933.73 -34.81 30 0 0
928714.20 6221935.86 -34.59 30 0 0
928710.11 6221934.54 -34.58 30 0 0
928713.81 6221934.15 -34.41 30 0 0
928714.71 6221936.75 -34.03 30 0 0
928717.98 6221933.16 -34.88 30 0 0
928715.36 6221935.36 -34.62 30 0 0
928717.68 6221933.64 -34.62 30 0 0
928719.62 6221935.86 -34.71 30 0 0
928719.34 6221935.75 -34.39 30 0 0
928718.41 6221933.46 -34.12 30 0 0
928718.81 6221933.86 -34.05 30 0 0
928722.55 6221932.64 -34.91 30 0 0
928724.03 6221935.22 -34.58 30 0 0
928721.97 6221934.08 -34.51 30 0 0
928723.65 6221936.19 -34.29 30 0 0
928723.21 6221935.87 -33.97 30 0 0
928723.42 6221932.97 -34.01 30 0 0
928726.40 6221933.42 -34.24 30 0 0
928727.57 6221933.12 -34.45 30 0 0
928728.09 6221935.51 -34.04 30 0 0
928729.15 6221935.81 -34.38 30 0 0
928726.31 6221936.78 -33.50 30 0 0
928727.32 6221932.98 -33.95 30 0 0
928728.22 6221932.38 -33.85 30 0 0
928731.47 6221934.01 -34.19 30 0 0
928732.16 6221932.86 -33.87 30 0 0
928733.62 6221935.32 -33.82 30 0 0
928733.18 6221936.08 -33.93 30 0 0
928731.02 6221936.29 -33.47 30 0 0
928731.82 6221934.99 -33.48 30 0 0
928733.23 6221932.49 -33.54 30 0 0
928735.92 6221933.52 -33.70 30 0 0
928737.30 6221933.40 -33.92 30 0 0
928737.62 6221935.60 -33.49 30 0 0
928739.10 6221936.09 -33.72 30 0 0
928736.02 6221936.50 -33.17 30 0 0
928736.12 6221936.80 -33.28 30 0 0
928741.68 6221932.74 -33.74 30 0 0
928741.40 6221934.26 -33.52 30 0 0
928743.33 6221935.05 -33.52 30 0 0
928743.13 6221936.31 -33.25 30 0 0
928740.23 6221933.80 -33.16 30 0 0
928740.82 6221935.61 -33.06 30 0 0
928744.72 6221936.01 -32.82 30 0 0
928746.73 6221933.30 -33.41 30 0 0
928745.63 6221933.19 -33.27 30 0 0
928748.69 6221935.79 -33.12 30 0 0
928745.43 6221935.52 -32.74 30 0 0
928748.73 6221933.12 -32.66 30 0 0
928750.92 6221932.14 -32.90 30 0 0
928752.62 6221934.40 -33.09 30 0 0
928754.90 6221932.55 -32.89 30 0 0
928750.23 6221934.82 -32.64 30 0 0
928753.13 6221934.93 -32.36 30 0 0
928754.93 6221934.53 -32.09 30 0 0
928757.14 6221932.14 -32.32 30 0 0
928757.43 6221937.04 -31.94 30 0 0
928759.64 6221933.64 -31.98 30 0 0
928761.24 6221934.15 -31.69 30 0 0
928764.14 6221933.85 -31.72 30 0 0
928766.74 6221933.15 -32.27 30 0 0
928765.84 6221936.06 -31.58 30 0 0
928769.35 6221932.56 -31.44 30 0 0
928769.75 6221933.16 -31.58 30 0 0
928771.47 6221933.17 -31.63 30 0 0
928772.24 6221936.47 -30.69 30 0 0
928773.85 6221932.67 -31.25 30 0 0
928774.04 6221935.27 -30.84 30 0 0
928775.43 6221933.40 -31.30 30 0 0
928777.09 6221932.84 -31.35 30 0 0
928779.48 6221935.01 -31.43 30 0 0
928776.74 6221936.48 -30.76 30 0 0
928778.05 6221932.38 -31.27 30 0 0
928784.68 6221934.67 -31.04 30 0 0
928783.41 6221935.23 -31.22 30 0 0
928781.25 6221937.01 -30.97 30 0 0
928782.05 6221935.79 -30.24 30 0 0
928782.45 6221934.19 -30.95 30 0 0
928783.46 6221932.19 -30.77 30 0 0
928787.20 6221936.43 -30.87 30 0 0
928786.45 6221936.10 -30.41 30 0 0
928786.85 6221936.50 -30.41 30 0 0
928793.67 6221932.60 -30.86 30 0 0
928792.13 6221936.79 -30.68 30 0 0
928790.66 6221933.61 -30.33 30 0 0
928791.45 6221935.01 -30.39 30 0 0
928794.86 6221935.22 -30.36 30 0 0
928795.37 6221934.65 -30.58 30 0 0
928797.59 6221932.83 -30.59 30 0 0
928796.16 6221935.02 -30.33 30 0 0
928798.76 6221932.32 -30.46 30 0 0
928802.17 6221936.47 -30.31 30 0 0
928803.41 6221936.81 -30.43 30 0 0
928801.06 6221934.03 -30.26 30 0 0
928803.46 6221934.74 -30.05 30 0 0
928806.72 6221934.31 -30.49 30 0 0
928805.66 6221934.14 -29.83 30 0 0
928807.46 6221936.24 -29.86 30 0 0
928810.77 6221932.95 -30.01 30 0 0
928811.37 6221933.25 -29.94 30 0 0
928813.56 6221936.86 -29.46 30 0 0
928816.89 6221934.00 -29.62 30 0 0
928817.95 6221933.43 -29.88 30 0 0
928818.03 6221936.92 -29.56 30 0 0
928815.17 6221933.26 -29.55 30 0 0
928816.07 6221935.86 -29.53 30 0 0
928818.07 6221936.97 -29.45 30 0 0
928819.98 6221932.97 -29.54 30 0 0
928821.57 6221934.66 -29.43 30 0 0
928820.16 6221935.08 -29.70 30 0 0
928824.65 6221932.72 -29.49 30 0 0
928823.67 6221932.87 -29.77 30 0 0
928822.02 6221936.91 -28.69 30 0 0
928823.25 6221936.76 -29.49 30 0 0
928820.07 6221937.07 -29.28 30 0 0
928820.28 6221932.17 -29.68 30 0 0
928823.07 6221935.98 -29.32 30 0 0
928823.97 6221934.28 -29.26 30 0 0
928826.31 6221934.84 -29.64 30 0 0
928825.37 6221934.93 -29.72 30 0 0
928828.47 6221932.96 -29.58 30 0 0
928829.84 6221935.70 -29.59 30 0 0
928829.12 6221935.81 -29.18 30 0 0
928825.08 6221932.48 -29.20 30 0 0
928827.97 6221936.49 -28.99 30 0 0
928828.77 6221936.69 -29.09 30 0 0
928831.97 6221933.80 -29.52 30 0 0
928833.55 6221933.57 -29.54 30 0 0
928833.70 6221935.82 -29.33 30 0 0
928832.58 6221933.70 -29.09 30 0 0
928832.68 6221935.50 -29.01 30 0 0
928835.30 6221935.58 -29.27 30 0 0
928838.11 6221933.52 -29.51 30 0 0
928837.45 6221933.66 -29.14 30 0 0
928839.29 6221936.35 -28.93 30 0 0
928837.49 6221936.45 -29.40 30 0 0
928836.78 6221935.31 -28.93 30 0 0
928837.18 6221935.71 -28.87 30 0 0
928843.94 6221932.15 -29.18 30 0 0
928841.34 6221934.53 -29.29 30 0 0
928843.57 6221936.08 -29.09 30 0 0
928843.13 6221936.48 -28.86 30 0 0
928840.69 6221932.31 -28.72 30 0 0
928842.19 6221934.62 -28.91 30 0 0
928845.97 6221932.16 -28.98 30 0 0
928849.82 6221932.28 -28.82 30 0 0
928845.67 6221934.19 -29.12 30 0 0
928847.72 6221934.17 -28.75 30 0 0
928849.75 6221934.51 -28.61 30 0 0
928847.65 6221936.46 -28.73 30 0 0
928847.53 6221937.04 -28.42 30 0 0
928845.09 6221934.62 -28.63 30 0 0
928846.99 6221934.53 -28.66 30 0 0
928849.39 6221936.43 -28.42 30 0 0
928854.25 6221932.39 -29.14 30 0 0
928854.15 6221932.91 -28.53 30 0 0
928852.06 6221934.86 -28.66 30 0 0
928851.51 6221936.49 -28.38 30 0 0
928853.81 6221936.87 -28.50 30 0 0
928851.79 6221933.84 -28.41 30 0 0
928853.19 6221933.44 -28.36 30 0 0
928858.11 6221932.43 -28.77 30 0 0
928856.04 6221934.34 -28.73 30 0 0
928855.89 6221934.96 -28.53 30 0 0
928855.63 6221936.79 -28.65 30 0 0
928856.40 6221933.75 -28.41 30 0 0
928857.79 6221935.75 -28.18 30 0 0
928860.11 6221932.54 -28.41 30 0 0
928862.23 6221932.53 -28.39 30 0 0
928864.38 6221932.98 -28.41 30 0 0
928860.13 6221934.55 -28.75 30 0 0
928860.24 6221935.41 -28.20 30 0 0
928863.96 6221934.58 -28.46 30 0 0
928861.87 6221936.59 -28.78 30 0 0
928861.20 6221932.95 -28.36 30 0 0
928861.70 6221932.66 -28.28 30 0 0
928864.29 6221936.96 -28.06 30 0 0
928868.54 6221932.30 -28.49 30 0 0
928868.17 6221933.10 -28.50 30 0 0
928866.12 6221935.02 -28.45 30 0 0
928868.28 6221934.67 -28.39 30 0 0
928866.26 6221936.61 -28.36 30 0 0
928865.70 6221934.57 -27.89 30 0 0
928866.00 6221932.56 -28.25 30 0 0
928868.90 6221936.47 -27.88 30 0 0
928872.99 6221932.45 -28.39 30 0 0
928872.50 6221933.33 -28.14 30 0 0
928870.47 6221935.27 -28.10 30 0 0
928874.76 6221934.43 -28.26 30 0 0
928874.30 6221935.27 -27.85 30 0 0
928870.09 6221936.57 -27.95 30 0 0
928874.52 6221936.38 -27.41 30 0 0
928870.70 6221936.68 -27.89 30 0 0
928871.21 6221932.58 -28.16 30 0 0
928874.20 6221936.68 -27.81 30 0 0
928874.81 6221933.58 -27.82 30 0 0
928876.79 6221932.47 -28.22 30 0 0
928878.79 6221933.10 -27.87 30 0 0
928878.96 6221934.33 -28.21 30 0 0
928878.36 6221935.31 -27.70 30 0 0
928878.30 6221935.69 -27.74 30 0 0
928878.40 6221935.99 -27.88 30 0 0
928880.96 6221932.36 -28.17 30 0 0
928882.97 6221933.33 -28.05 30 0 0
928882.73 6221934.39 -28.30 30 0 0
928884.78 6221935.29 -27.87 30 0 0
928880.77 6221936.26 -27.92 30 0 0
928884.88 6221936.04 -27.62 30 0 0
928882.21 6221932.80 -27.85 30 0 0
928884.21 6221935.90 -27.53 30 0 0
928887.32 6221932.23 -28.05 30 0 0
928886.78 6221933.32 -27.90 30 0 0
928886.85 6221934.07 -27.67 30 0 0
928888.51 6221935.06 -27.76 30 0 0
928888.65 6221936.06 -27.68 30 0 0
928887.71 6221934.51 -27.57 30 0 0
928888.01 6221934.91 -27.71 30 0 0
928890.50 6221933.05 -27.68 30 0 0
928893.26 6221933.93 -27.45 30 0 0
928892.31 6221935.02 -27.56 30 0 0
928890.34 6221936.96 -27.39 30 0 0
928894.15 6221936.72 -27.35 30 0 0
928892.44 6221935.83 -27.73 30 0 0
928890.91 6221936.82 -27.39 30 0 0
928893.91 6221935.12 -27.27 30 0 0
928894.72 6221933.83 -27.26 30 0 0
928896.87 6221932.86 -27.27 30 0 0
928897.13 6221933.69 -27.39 30 0 0
928896.08 6221934.79 -27.59 30 0 0
928898.95 6221935.66 -27.34 30 0 0
928897.92 6221936.70 -27.37 30 0 0
928897.52 6221933.93 -27.44 30 0 0
928902.20 6221934.52 -27.11 30 0 0
928900.36 6221932.63 -27.46 30 0 0
928900.88 6221933.74 -27.63 30 0 0
928904.16 6221932.53 -27.15 30 0 0
928904.45 6221933.34 -27.37 30 0 0
928902.54 6221935.28 -27.14 30 0 0
928901.05 6221936.14 -27.01 30 0 0
928901.02 6221935.34 -27.26 30 0 0
928903.72 6221934.74 -27.30 30 0 0
928905.34 6221934.04 -27.05 30 0 0
928906.30 6221935.22 -27.09 30 0 0
928909.11 6221934.00 -27.05 30 0 0
928909.36 6221934.72 -26.97 30 0 0
928907.17 6221936.02 -27.07 30 0 0
928907.47 6221936.71 -26.83 30 0 0
928905.23 6221932.25 -27.23 30 0 0
928906.83 6221933.15 -27.16 30 0 0
928907.32 6221935.05 -26.97 30 0 0
928909.72 6221936.96 -26.85 30 0 0
928910.84 6221933.06 -27.19 30 0 0
928912.02 6221933.48 -27.14 30 0 0
928914.01 6221932.56 -27.01 30 0 0
928913.86 6221935.43 -27.13 30 0 0
928910.11 6221935.47 -27.00 30 0 0
928911.22 6221936.66 -26.90 30 0 0
928914.49 6221936.52 -26.78 30 0 0
928913.91 6221936.13 -26.82 30 0 0
928911.13 6221932.26 -27.08 30 0 0
928913.53 6221934.06 -27.00 30 0 0
928914.12 6221936.07 -26.73 30 0 0
928915.87 6221934.46 -26.79 30 0 0
928916.38 6221934.51 -26.89 30 0 0
928918.63 6221932.85 -26.54 30 0 0
928917.79 6221932.42 -26.71 30 0 0
928918.61 6221933.92 -26.59 30 0 0
928918.26 6221936.40 -26.67 30 0 0
928916.73 6221932.17 -26.77 30 0 0
928918.13 6221932.87 -26.59 30 0 0
928919.63 6221936.08 -26.67 30 0 0
928919.83 6221936.38 -26.42 30 0 0
928922.34 6221933.91 -26.90 30 0 0
928922.27 6221935.06 -26.32 30 0 0
928920.27 6221935.44 -26.78 30 0 0
928924.92 6221933.01 -26.57 30 0 0
928922.91 6221934.02 -26.52 30 0 0
928924.13 6221933.07 -26.52 30 0 0
928920.46 6221935.91 -26.77 30 0 0
928924.16 6221936.96 -26.17 30 0 0
928923.54 6221933.59 -26.43 30 0 0
928923.64 6221933.69 -26.59 30 0 0
928926.81 6221934.87 -26.27 30 0 0
928926.01 6221934.98 -26.43 30 0 0
928927.34 6221934.17 -26.23 30 0 0
928928.69 6221932.81 -26.25 30 0 0
928929.68 6221935.19 -26.27 30 0 0
928925.48 6221936.27 -26.39 30 0 0
928926.62 6221936.69 -26.34 30 0 0
928929.23 6221936.09 -26.23 30 0 0
928927.03 6221936.79 -26.12 30 0 0
928928.93 6221935.40 -26.57 30 0 0
928930.53 6221932.78 -26.45 30 0 0
928931.28 6221934.37 -26.24 30 0 0
928933.61 6221933.84 -26.19 30 0 0
928934.15 6221932.88 -26.13 30 0 0
928933.12 6221932.40 -26.56 30 0 0
928931.41 6221935.94 -26.02 30 0 0
928933.19 6221936.17 -25.78 30 0 0
928931.60 6221936.99 -25.84 30 0 0
928930.64 6221933.70 -25.98 30 0 0
928933.44 6221933.01 -26.20 30 0 0
928936.04 6221934.75 -25.95 30 0 0
928935.86 6221933.68 -26.05 30 0 0
928935.35 6221934.87 -26.00 30 0 0
928937.19 6221932.79 -25.97 30 0 0
928935.03 6221934.20 -26.12 30 0 0
928937.89 6221932.73 -26.10 30 0 0
928937.77 6221935.53 -25.79 30 0 0
928939.62 6221933.46 -25.80 30 0 0
928939.10 6221934.66 -25.80 30 0 0
928937.26 6221936.69 -25.62 30 0 0
928935.44 6221935.11 -25.89 30 0 0
928938.54 6221934.22 -25.98 30 0 0
928938.85 6221932.72 -26.00 30 0 0
928944.15 6221932.69 -26.10 30 0 0
928942.24 6221934.72 -25.36 30 0 0
928942.75 6221932.42 -25.81 30 0 0
928945.15 6221932.13 -25.63 30 0 0
928945.54 6221936.53 -25.52 30 0 0
928947.75 6221933.14 -25.63 30 0 0
928949.75 6221935.14 -25.45 30 0 0
928950.44 6221936.74 -25.12 30 0 0
928954.85 6221935.75 -25.24 30 0 0
928957.06 6221932.15 -25.29 30 0 0
928959.75 6221935.56 -25.01 30 0 0
928964.16 6221934.77 -24.82 30 0 0
928968.96 6221934.18 -24.36 30 0 0
928973.06 6221933.89 -24.39 30 0 0
928975.06 6221937.09 -24.06 30 0 0
928977.77 6221932.90 -24.30 30 0 0
928979.86 6221935.70 -24.01 30 0 0
928981.47 6221932.51 -24.21 30 0 0
928987.47 6221935.92 -23.54 30 0 0
928991.98 6221933.83 -23.31 30 0 0
928992.37 6221935.33 -23.39 30 0 0
928997.07 6221935.34 -22.70 30 0 0
928395.11 6221937.89 -43.84 30 0 0
928416.92 6221941.13 -42.42 30 0 0
928478.66 6221937.66 -41.86 30 0 0
928500.87 6221940.21 -40.69 30 0 0
928518.58 6221941.25 -39.68 30 0 0
928523.18 6221941.96 -40.28 30 0 0
928526.19 6221939.56 -39.97 30 0 0
928529.79 6221941.27 -40.07 30 0 0
928533.69 6221938.68 -39.74 30 0 0
928537.99 6221941.09 -39.58 30 0 0
928541.80 6221938.39 -39.90 30 0 0
928546.90 6221939.80 -39.84 30 0 0
928554.61 6221939.12 -39.60 30 0 0
928560.81 6221940.53 -39.07 30 0 0
928565.22 6221937.44 -39.33 30 0 0
928567.71 6221939.65 -39.09 30 0 0
928574.71 6221940.86 -38.92 30 0 0
928579.12 6221937.67 -39.11 30 0 0
928580.72 6221940.88 -38.94 30 0 0
928584.73 6221937.88 -38.92 30 0 0
928588.52 6221941.29 -38.69 30 0 0
928592.63 6221937.80 -38.69 30 0 0
928593.72 6221941.90 -38.65 30 0 0
928597.83 6221938.91 -38.63 30 0 0
928601.93 6221941.32 -38.51 30 0 0
928606.24 6221938.13 -38.36 30 0 0
928610.84 6221939.64 -38.47 30 0 0
928619.06 6221940.49 -38.88 30 0 0
928615.44 6221941.95 -38.10 30 0 0
928619.54 6221938.75 -38.15 30 0 0
928623.94 6221940.37 -38.05 30 0 0
928627.85 6221937.47 -37.84 30 0 0
928633.39 6221941.27 -37.94 30 0 0
928632.85 6221939.38 -37.70 30 0 0
928635.39 6221939.26 -38.24 30 0 0
928637.82 6221941.52 -38.29 30 0 0
928637.15 6221941.29 -37.62 30 0 0
928641.06 6221938.20 -37.60 30 0 0
928646.16 6221940.21 -37.42 30 0 0
928646.16 6221940.41 -37.36 30 0 0
928650.07 6221937.52 -37.55 30 0 0
928651.16 6221939.72 -37.26 30 0 0
928654.06 6221939.13 -37.28 30 0 0
928657.42 6221939.20 -37.34 30 0 0
928655.97 6221939.23 -37.15 30 0 0
928659.06 6221941.34 -36.94 30 0 0
928662.30 6221941.19 -37.35 30 0 0
928664.26 6221941.98 -37.55 30 0 0
928660.77 6221938.84 -37.01 30 0 0
928663.17 6221938.25 -36.94 30 0 0
928665.20 6221938.20 -37.77 30 0 0
928668.89 6221937.13 -37.23 30 0 0
928666.64 6221940.48 -37.85 30 0 0
928665.47 6221938.55 -36.93 30 0 0
928667.07 6221939.85 -36.92 30 0 0
928671.09 6221937.97 -37.10 30 0 0
928674.25 6221937.21 -37.16 30 0 0
928674.90 6221939.21 -36.85 30 0 0
928672.39 6221940.81 -37.13 30 0 0
928671.72 6221941.83 -36.71 30 0 0
928670.18 6221937.86 -36.62 30 0 0
928672.17 6221942.07 -36.70 30 0 0
928673.17 6221941.77 -36.39 30 0 0
928675.75 6221939.47 -37.11 30 0 0
928678.28 6221937.86 -36.75 30 0 0
928679.65 6221940.45 -36.79 30 0 0
928676.41 6221941.44 -36.73 30 0 0
928677.25 6221942.02 -36.67 30 0 0
928675.08 6221937.47 -36.53 30 0 0
928676.08 6221938.97 -36.53 30 0 0
928678.27 6221941.38 -36.30 30 0 0
928679.98 6221940.48 -36.09 30 0 0
928680.84 6221939.25 -36.72 30 0 0
928683.94 6221938.03 -36.77 30 0 0
928684.68 6221940.47 -36.47 30 0 0
928683.23 6221937.70 -36.87 30 0 0
928682.23 6221942.09 -36.62 30 0 0
928682.58 6221940.79 -36.16 30 0 0
928683.99 6221937.49 -36.08 30 0 0
928685.48 6221940.25 -36.63 30 0 0
928688.94 6221937.93 -36.19 30 0 0
928688.04 6221938.57 -36.06 30 0 0
928689.53 6221941.13 -35.98 30 0 0
928687.78 6221940.50 -35.93 30 0 0
928689.08 6221939.80 -35.74 30 0 0
928690.49 6221940.15 -36.09 30 0 0
928693.74 6221938.84 -36.13 30 0 0
928692.90 6221938.53 -36.05 30 0 0
928694.45 6221941.23 -35.92 30 0 0
928692.59 6221940.21 -35.53 30 0 0
928692.98 6221941.31 -35.57 30 0 0
928696.11 6221937.21 -36.22 30 0 0
928697.64 6221939.44 -36.28 30 0 0
928695.31 6221941.04 -36.06 30 0 0
928697.09 6221938.42 -35.56 30 0 0
928697.59 6221939.72 -35.12 30 0 0
928703.39 6221939.39 -35.40 30 0 0
928703.03 6221939.15 -34.66 30 0 0
928700.49 6221940.92 -35.37 30 0 0
928704.37 6221941.74 -34.90 30 0 0
928702.19 6221940.53 -34.47 30 0 0
928702.29 6221939.23 -34.66 30 0 0
928705.81 6221937.67 -35.10 30 0 0
928708.42 6221939.38 -34.67 30 0 0
928707.50 6221939.77 -34.63 30 0 0
928705.03 6221941.53 -35.12 30 0 0
928706.20 6221937.53 -34.31 30 0 0
928707.20 6221938.74 -34.18 30 0 0
928710.81 6221937.65 -34.45 30 0 0
928711.87 6221937.56 -34.59 30 0 0
928713.42 6221940.14 -34.40 30 0 0
928712.47 6221939.76 -34.15 30 0 0
928710.16 6221941.45 -34.06 30 0 0
928710.60 6221939.65 -34.15 30 0 0
928711.80 6221938.35 -34.04 30 0 0
928715.75 6221938.41 -34.33 30 0 0
928717.02 6221937.48 -34.43 30 0 0
928718.49 6221939.98 -34.16 30 0 0
928717.43 6221940.51 -34.02 30 0 0
928715.10 6221941.66 -33.72 30 0 0
928716.60 6221937.96 -33.87 30 0 0
928719.10 6221938.76 -33.91 30 0 0
928719.60 6221941.87 -33.62 30 0 0
928721.32 6221937.95 -34.41 30 0 0
928720.78 6221938.24 -34.19 30 0 0
928722.93 6221940.59 -34.31 30 0 0
928722.46 6221940.34 -33.95 30 0 0
928721.31 6221937.37 -33.93 30 0 0
928723.70 6221940.87 -33.64 30 0 0
928724.20 6221941.27 -33.48 30 0 0
928725.74 6221937.31 -34.31 30 0 0
928725.24 6221938.80 -34.17 30 0 0
928729.51 6221937.83 -33.83 30 0 0
928727.19 6221939.65 -34.03 30 0 0
928728.91 6221941.72 -33.78 30 0 0
928726.98 6221940.85 -33.77 30 0 0
928727.81 6221937.88 -33.57 30 0 0
928729.21 6221940.68 -33.15 30 0 0
928730.87 6221937.88 -34.08 30 0 0
928734.99 6221938.72 -33.63 30 0 0
928731.20 6221939.92 -33.71 30 0 0
928732.65 6221940.60 -34.03 30 0 0
928732.21 6221939.59 -33.23 30 0 0
928733.91 6221940.09 -33.10 30 0 0
928735.32 6221937.41 -33.68 30 0 0
928739.09 6221937.84 -33.32 30 0 0
928736.77 6221939.71 -33.62 30 0 0
928738.51 6221941.76 -33.35 30 0 0
928736.70 6221940.80 -33.47 30 0 0
