929833.78 6220879.86 -32.12 30 0 0
929838.38 6220881.78 -32.15 30 0 0
929842.29 6220878.88 -32.45 30 0 0
929846.68 6220880.49 -32.46 30 0 0
929850.89 6220877.40 -32.70 30 0 0
929855.39 6220879.11 -32.81 30 0 0
929860.09 6220880.92 -32.84 30 0 0
929863.70 6220877.63 -32.93 30 0 0
929868.60 6220879.54 -32.75 30 0 0
929871.90 6220881.95 -32.28 30 0 0
929875.90 6220882.05 -32.62 30 0 0
929877.01 6220878.85 -33.03 30 0 0
929878.41 6220877.16 -32.76 30 0 0
929880.51 6220880.06 -32.69 30 0 0
929882.61 6220877.37 -33.13 30 0 0
929885.21 6220877.67 -32.82 30 0 0
929885.21 6220880.37 -32.60 30 0 0
929889.31 6220878.48 -33.00 30 0 0
929892.01 6220881.99 -32.26 30 0 0
929894.62 6220878.79 -32.59 30 0 0
929901.22 6220880.31 -32.59 30 0 0
929904.32 6220877.41 -32.89 30 0 0
929907.42 6220881.22 -32.85 30 0 0
929910.73 6220879.13 -32.74 30 0 0
929917.03 6220880.34 -32.43 30 0 0
929920.23 6220878.45 -32.60 30 0 0
929927.23 6220879.66 -32.10 30 0 0
929929.64 6220877.66 -31.95 30 0 0
929932.53 6220881.57 -31.98 30 0 0
929936.94 6220878.88 -32.07 30 0 0
929942.24 6220880.59 -31.68 30 0 0
929946.95 6220878.40 -31.63 30 0 0
929951.95 6220879.61 -31.39 30 0 0
929956.76 6220877.92 -31.31 30 0 0
929961.46 6220878.73 -31.43 30 0 0
929966.46 6220877.54 -31.05 30 0 0
929969.45 6220881.65 -30.98 30 0 0
929971.06 6220878.05 -30.95 30 0 0
929974.06 6220882.06 -29.39 30 0 0
929979.36 6220881.17 -29.23 30 0 0
929983.76 6220880.98 -29.11 30 0 0
929988.87 6220880.39 -29.11 30 0 0
929993.57 6220880.00 -28.86 30 0 0
929998.58 6220879.51 -28.48 30 0 0
929578.92 6220884.33 -38.62 30 0 0
929587.42 6220882.85 -37.84 30 0 0
929596.62 6220886.57 -37.18 30 0 0
929600.53 6220883.08 -36.48 30 0 0
929605.23 6220885.89 -36.38 30 0 0
929608.84 6220882.59 -35.96 30 0 0
929613.44 6220884.51 -35.50 30 0 0
929618.14 6220885.92 -35.37 30 0 0
929621.74 6220883.32 -35.23 30 0 0
929626.64 6220884.53 -35.14 30 0 0
929631.14 6220886.54 -34.90 30 0 0
929634.75 6220883.15 -34.65 30 0 0
929639.45 6220885.66 -34.43 30 0 0
929643.46 6220882.57 -33.94 30 0 0
929647.96 6220884.48 -33.84 30 0 0
929652.76 6220886.19 -33.80 30 0 0
929656.47 6220882.99 -33.37 30 0 0
929661.36 6220884.91 -33.28 30 0 0
929665.66 6220886.42 -33.12 30 0 0
929669.67 6220883.42 -32.82 30 0 0
929674.27 6220885.03 -32.42 30 0 0
929678.08 6220882.24 -32.24 30 0 0
929682.68 6220884.45 -32.14 30 0 0
929687.48 6220886.16 -31.72 30 0 0
929690.99 6220883.17 -31.49 30 0 0
929695.69 6220884.78 -31.16 30 0 0
929700.48 6220886.69 -31.02 30 0 0
929704.19 6220883.39 -30.53 30 0 0
929708.49 6220885.20 -30.51 30 0 0
929712.40 6220882.11 -30.25 30 0 0
929713.29 6220886.92 -30.51 30 0 0
929721.90 6220886.23 -29.98 30 0 0
929725.51 6220883.04 -30.03 30 0 0
929730.21 6220884.95 -29.51 30 0 0
929738.61 6220883.57 -29.80 30 0 0
929751.72 6220883.79 -29.84 30 0 0
929756.62 6220885.91 -29.88 30 0 0
929760.33 6220883.11 -30.13 30 0 0
929769.83 6220886.53 -30.97 30 0 0
929773.53 6220883.44 -30.99 30 0 0
929778.03 6220885.15 -31.39 30 0 0
929782.73 6220886.86 -31.09 30 0 0
929786.44 6220883.67 -31.26 30 0 0
929791.24 6220885.58 -31.24 30 0 0
929794.65 6220882.28 -31.46 30 0 0
929799.75 6220885.00 -31.33 30 0 0
929804.35 6220886.61 -31.31 30 0 0
929808.35 6220883.71 -31.54 30 0 0
929812.85 6220885.12 -31.68 30 0 0
929816.76 6220882.23 -31.79 30 0 0
929821.16 6220883.74 -31.96 30 0 0
929826.16 6220885.75 -31.71 30 0 0
929829.77 6220882.26 -32.07 30 0 0
929834.67 6220884.87 -31.89 30 0 0
929839.37 6220886.68 -31.85 30 0 0
929843.18 6220883.79 -32.52 30 0 0
929847.67 6220885.40 -32.16 30 0 0
929851.78 6220882.30 -32.58 30 0 0
929856.48 6220884.01 -32.67 30 0 0
929860.98 6220885.83 -32.60 30 0 0
929864.69 6220882.53 -32.69 30 0 0
929865.08 6220886.83 -32.27 30 0 0
929869.18 6220886.84 -32.56 30 0 0
929869.49 6220884.34 -32.73 30 0 0
929873.89 6220884.85 -32.24 30 0 0
929878.59 6220885.06 -32.47 30 0 0
929882.90 6220883.37 -32.13 30 0 0
929885.49 6220886.58 -31.95 30 0 0
929888.10 6220883.68 -32.31 30 0 0
929894.70 6220885.40 -32.25 30 0 0
929897.71 6220882.40 -32.42 30 0 0
929900.80 6220886.01 -32.48 30 0 0
929903.91 6220884.01 -32.55 30 0 0
929910.51 6220885.13 -32.29 30 0 0
929913.42 6220883.03 -32.40 30 0 0
929916.21 6220886.94 -31.48 30 0 0
929920.42 6220884.45 -31.79 30 0 0
929923.13 6220882.45 -31.96 30 0 0
929926.12 6220886.26 -31.64 30 0 0
929930.43 6220883.77 -31.86 30 0 0
929935.53 6220885.28 -31.68 30 0 0
929940.13 6220883.09 -31.73 30 0 0
929945.13 6220884.50 -31.36 30 0 0
929950.04 6220882.51 -31.21 30 0 0
929953.03 6220886.72 -31.25 30 0 0
929954.84 6220883.52 -31.20 30 0 0
929959.75 6220882.13 -31.09 30 0 0
929962.74 6220886.34 -30.86 30 0 0
929964.35 6220882.54 -31.09 30 0 0
929967.34 6220886.65 -29.79 30 0 0
929972.45 6220885.96 -29.39 30 0 0
929977.05 6220885.97 -29.14 30 0 0
929982.25 6220885.18 -29.11 30 0 0
929986.66 6220884.79 -29.14 30 0 0
929991.76 6220884.40 -28.82 30 0 0
929996.47 6220883.81 -28.75 30 0 0
929593.01 6220889.47 -37.44 30 0 0
929597.51 6220891.38 -37.47 30 0 0
929609.83 6220887.50 -36.26 30 0 0
929614.43 6220889.31 -35.97 30 0 0
929619.03 6220890.72 -35.82 30 0 0
929622.73 6220888.13 -35.36 30 0 0
929627.54 6220889.44 -35.09 30 0 0
929632.03 6220891.45 -35.20 30 0 0
929635.74 6220888.05 -34.71 30 0 0
929640.44 6220890.37 -34.68 30 0 0
929644.45 6220887.27 -34.32 30 0 0
929648.85 6220889.28 -34.04 30 0 0
929653.65 6220891.09 -33.99 30 0 0
929657.46 6220887.80 -33.69 30 0 0
929662.36 6220889.71 -33.51 30 0 0
929666.65 6220891.12 -33.40 30 0 0
929670.56 6220888.33 -32.86 30 0 0
929675.16 6220889.94 -32.91 30 0 0
929678.97 6220887.14 -32.46 30 0 0
929679.96 6220892.05 -32.67 30 0 0
929683.67 6220889.16 -32.20 30 0 0
929688.37 6220891.07 -32.07 30 0 0
929691.88 6220887.97 -31.52 30 0 0
929696.58 6220889.58 -31.31 30 0 0
929701.27 6220891.39 -30.87 30 0 0
929704.98 6220888.20 -30.53 30 0 0
929709.48 6220889.91 -30.36 30 0 0
929714.18 6220891.82 -30.40 30 0 0
929717.89 6220888.53 -30.47 30 0 0
929722.89 6220891.14 -30.36 30 0 0
929726.50 6220887.84 -30.06 30 0 0
929731.20 6220889.76 -30.28 30 0 0
929735.70 6220891.37 -29.80 30 0 0
929739.60 6220888.27 -29.75 30 0 0
929749.10 6220891.69 -29.51 30 0 0
929761.12 6220887.92 -29.71 30 0 0
929774.42 6220888.35 -30.99 30 0 0
929778.92 6220890.06 -31.21 30 0 0
929783.72 6220891.87 -31.04 30 0 0
929787.33 6220888.67 -31.09 30 0 0
929792.23 6220890.48 -31.12 30 0 0
929795.64 6220887.19 -30.83 30 0 0
929796.63 6220892.09 -31.40 30 0 0
929800.64 6220889.90 -31.32 30 0 0
929805.24 6220891.41 -31.48 30 0 0
929809.24 6220888.62 -31.48 30 0 0
929813.84 6220890.03 -31.58 30 0 0
929817.65 6220887.14 -31.73 30 0 0
929818.44 6220892.04 -31.64 30 0 0
929822.15 6220888.65 -31.77 30 0 0
929827.05 6220890.46 -31.50 30 0 0
929830.76 6220887.26 -31.71 30 0 0
929831.75 6220892.07 -31.52 30 0 0
929835.46 6220889.77 -31.28 30 0 0
929840.36 6220891.49 -31.38 30 0 0
929844.07 6220888.69 -31.97 30 0 0
929848.76 6220890.30 -31.87 30 0 0
929852.67 6220887.11 -31.99 30 0 0
929857.47 6220888.82 -31.94 30 0 0
929858.57 6220891.62 -31.84 30 0 0
929861.87 6220890.63 -32.11 30 0 0
929862.67 6220891.63 -32.19 30 0 0
929865.78 6220887.44 -32.48 30 0 0
929867.18 6220889.74 -32.22 30 0 0
929870.38 6220889.25 -32.24 30 0 0
929871.88 6220889.85 -32.10 30 0 0
929876.29 6220887.96 -31.78 30 0 0
929878.88 6220891.37 -31.86 30 0 0
929881.49 6220888.37 -32.06 30 0 0
929884.48 6220891.78 -32.34 30 0 0
929888.29 6220889.99 -32.45 30 0 0
929891.00 6220887.19 -32.46 30 0 0
929894.19 6220891.00 -31.96 30 0 0
929897.50 6220889.00 -32.13 30 0 0
929904.10 6220889.92 -32.02 30 0 0
929906.60 6220887.92 -32.17 30 0 0
929909.50 6220891.83 -31.45 30 0 0
929913.81 6220889.34 -31.45 30 0 0
929919.11 6220890.85 -31.59 30 0 0
929923.61 6220888.46 -31.45 30 0 0
929929.01 6220890.07 -31.45 30 0 0
929933.62 6220887.88 -31.50 30 0 0
929936.71 6220892.09 -31.32 30 0 0
929938.42 6220889.19 -31.34 30 0 0
929943.23 6220887.40 -31.39 30 0 0
929946.32 6220891.61 -31.02 30 0 0
929948.13 6220888.51 -31.09 30 0 0
929956.13 6220890.93 -30.55 30 0 0
929957.74 6220887.53 -31.02 30 0 0
929960.63 6220891.34 -30.64 30 0 0
929965.63 6220890.65 -29.66 30 0 0
929970.34 6220890.36 -29.52 30 0 0
929975.44 6220889.97 -29.39 30 0 0
929980.04 6220889.78 -29.09 30 0 0
929985.15 6220889.19 -28.68 30 0 0
929989.55 6220888.70 -28.88 30 0 0
929994.76 6220888.21 -28.64 30 0 0
929999.36 6220887.72 -28.59 30 0 0
929589.31 6220892.56 -37.54 30 0 0
929602.51 6220892.89 -36.77 30 0 0
929607.01 6220895.50 -36.81 30 0 0
929615.42 6220894.12 -36.09 30 0 0
929620.02 6220895.63 -35.77 30 0 0
929623.73 6220893.03 -35.67 30 0 0
929628.43 6220894.24 -35.74 30 0 0
929632.92 6220896.15 -35.24 30 0 0
929636.63 6220892.86 -34.77 30 0 0
929641.43 6220895.17 -34.78 30 0 0
929645.34 6220892.28 -34.39 30 0 0
929646.13 6220897.08 -34.59 30 0 0
929649.84 6220894.09 -34.31 30 0 0
929654.54 6220895.90 -34.29 30 0 0
929658.35 6220892.50 -33.76 30 0 0
929663.25 6220894.62 -33.83 30 0 0
929667.55 6220896.03 -33.55 30 0 0
929671.35 6220893.13 -33.28 30 0 0
929676.05 6220894.74 -32.99 30 0 0
929680.85 6220896.75 -32.75 30 0 0
929684.46 6220893.96 -32.31 30 0 0
929689.16 6220895.87 -31.90 30 0 0
929692.67 6220892.78 -31.69 30 0 0
929697.47 6220894.39 -31.47 30 0 0
929702.17 6220896.20 -31.25 30 0 0
929705.87 6220893.00 -30.81 30 0 0
929710.37 6220894.71 -30.53 30 0 0
929715.07 6220896.53 -30.34 30 0 0
929723.78 6220896.04 -30.27 30 0 0
929753.50 6220893.40 -29.32 30 0 0
929758.50 6220895.72 -29.79 30 0 0
929762.11 6220892.82 -30.00 30 0 0
929775.21 6220893.25 -31.07 30 0 0
929779.81 6220894.96 -31.13 30 0 0
929784.71 6220896.67 -31.08 30 0 0
929788.32 6220893.38 -31.24 30 0 0
929793.02 6220895.39 -31.22 30 0 0
929797.72 6220897.00 -31.45 30 0 0
929801.53 6220894.81 -31.57 30 0 0
929806.23 6220896.32 -31.38 30 0 0
929810.14 6220893.52 -31.32 30 0 0
929814.84 6220894.83 -31.52 30 0 0
929819.33 6220896.94 -31.30 30 0 0
929823.24 6220893.45 -31.56 30 0 0
929827.94 6220895.46 -31.15 30 0 0
929832.74 6220896.87 -30.64 30 0 0
929836.35 6220894.78 -31.02 30 0 0
929841.45 6220896.39 -30.93 30 0 0
929845.06 6220893.50 -31.41 30 0 0
929849.76 6220895.01 -31.45 30 0 0
929851.95 6220896.31 -31.48 30 0 0
929853.56 6220892.11 -31.66 30 0 0
929854.35 6220896.92 -31.48 30 0 0
929855.96 6220896.52 -31.52 30 0 0
929860.66 6220894.73 -31.02 30 0 0
929862.86 6220895.53 -31.75 30 0 0
929865.37 6220894.74 -31.55 30 0 0
929869.57 6220893.05 -31.45 30 0 0
929872.17 6220896.35 -30.98 30 0 0
929874.77 6220893.16 -31.93 30 0 0
929877.87 6220896.67 -31.45 30 0 0
929881.57 6220894.87 -31.71 30 0 0
929887.58 6220895.59 -31.70 30 0 0
929890.98 6220893.59 -32.55 30 0 0
929897.28 6220894.91 -31.77 30 0 0
929900.29 6220892.81 -31.71 30 0 0
929903.18 6220896.72 -31.59 30 0 0
929907.29 6220893.93 -31.84 30 0 0
929912.39 6220895.74 -31.61 30 0 0
929917.00 6220893.35 -31.73 30 0 0
929922.00 6220894.76 -31.54 30 0 0
929926.81 6220892.57 -31.48 30 0 0
929929.90 6220896.68 -31.46 30 0 0
929931.91 6220893.98 -31.27 30 0 0
929939.81 6220896.40 -30.95 30 0 0
929941.41 6220893.00 -31.02 30 0 0
929944.41 6220896.91 -30.77 30 0 0
929949.21 6220895.72 -30.57 30 0 0
929951.02 6220892.42 -30.68 30 0 0
929953.91 6220896.33 -30.27 30 0 0
929959.02 6220895.04 -30.09 30 0 0
929963.62 6220895.45 -29.36 30 0 0
929968.63 6220894.66 -29.30 30 0 0
929973.33 6220894.27 -29.30 30 0 0
929978.33 6220893.98 -28.71 30 0 0
929983.04 6220893.59 -28.79 30 0 0
929988.14 6220893.10 -28.77 30 0 0
929991.04 6220897.00 -28.68 30 0 0
929992.45 6220892.61 -28.78 30 0 0
929995.34 6220896.51 -28.04 30 0 0
929997.75 6220892.12 -28.62 30 0 0
929578.18 6220901.84 -39.87 30 0 0
929590.20 6220897.46 -37.97 30 0 0
929594.90 6220899.18 -37.93 30 0 0
929603.40 6220897.79 -37.29 30 0 0
929607.90 6220900.30 -37.63 30 0 0
929611.61 6220897.21 -36.17 30 0 0
929616.31 6220898.92 -36.22 30 0 0
929620.91 6220900.43 -36.10 30 0 0
929624.62 6220897.64 -35.62 30 0 0
929629.22 6220899.15 -35.43 30 0 0
929633.81 6220901.16 -35.41 30 0 0
929637.52 6220897.76 -35.09 30 0 0
929642.32 6220899.87 -34.89 30 0 0
929647.02 6220901.89 -34.72 30 0 0
929650.63 6220898.89 -34.77 30 0 0
929655.43 6220900.70 -34.36 30 0 0
929659.24 6220897.31 -34.14 30 0 0
929664.14 6220899.32 -33.85 30 0 0
929668.44 6220900.73 -33.71 30 0 0
929672.24 6220897.94 -33.36 30 0 0
929676.84 6220899.55 -33.07 30 0 0
929681.84 6220901.76 -32.75 30 0 0
929685.45 6220898.76 -32.29 30 0 0
929690.05 6220900.78 -31.90 30 0 0
929693.56 6220897.58 -31.72 30 0 0
929698.36 6220899.19 -31.48 30 0 0
929702.96 6220901.10 -31.13 30 0 0
929706.76 6220898.01 -31.07 30 0 0
929711.26 6220899.52 -30.80 30 0 0
929724.67 6220900.95 -30.13 30 0 0
929728.18 6220897.55 -29.81 30 0 0
929732.88 6220899.56 -29.76 30 0 0
929737.58 6220901.08 -29.93 30 0 0
929772.60 6220901.05 -30.01 30 0 0
929780.90 6220899.77 -30.87 30 0 0
929785.60 6220901.58 -30.94 30 0 0
929789.31 6220898.28 -31.19 30 0 0
929793.91 6220900.29 -31.16 30 0 0
929798.81 6220901.70 -31.27 30 0 0
929802.52 6220899.71 -31.26 30 0 0
929807.32 6220901.12 -31.39 30 0 0
929810.93 6220898.43 -31.20 30 0 0
929815.93 6220899.64 -31.34 30 0 0
929820.32 6220901.85 -30.79 30 0 0
929824.23 6220898.26 -30.95 30 0 0
929828.83 6220900.27 -30.52 30 0 0
929833.73 6220901.68 -30.57 30 0 0
929837.24 6220899.58 -30.61 30 0 0
929842.54 6220901.10 -30.57 30 0 0
929845.34 6220901.60 -29.77 30 0 0
929849.34 6220901.61 -30.20 30 0 0
929855.24 6220901.72 -30.77 30 0 0
929858.75 6220899.63 -31.05 30 0 0
929863.06 6220897.74 -31.23 30 0 0
929863.75 6220900.24 -31.25 30 0 0
929865.65 6220900.94 -31.20 30 0 0
929868.16 6220898.05 -31.41 30 0 0
929871.15 6220901.56 -31.29 30 0 0
929874.96 6220899.86 -30.84 30 0 0
929884.17 6220898.68 -30.75 30 0 0
929890.87 6220899.80 -30.89 30 0 0
929893.78 6220897.70 -31.09 30 0 0
929896.47 6220901.51 -31.02 30 0 0
929900.58 6220899.02 -31.05 30 0 0
929906.08 6220900.43 -31.29 30 0 0
929910.59 6220898.04 -31.54 30 0 0
929915.29 6220899.45 -31.70 30 0 0
929920.09 6220897.46 -31.59 30 0 0
929923.19 6220901.77 -31.32 30 0 0
929924.89 6220898.57 -31.55 30 0 0
929932.99 6220900.89 -31.17 30 0 0
929934.80 6220897.89 -31.02 30 0 0
929937.69 6220901.80 -31.00 30 0 0
929942.70 6220900.51 -30.54 30 0 0
929947.30 6220900.82 -30.25 30 0 0
929952.21 6220900.03 -29.75 30 0 0
929957.01 6220900.34 -29.40 30 0 0
929961.91 6220899.25 -29.12 30 0 0
929966.52 6220899.35 -29.00 30 0 0
929971.52 6220898.66 -29.06 30 0 0
929976.22 6220898.17 -28.70 30 0 0
929979.12 6220902.08 -28.50 30 0 0
929981.33 6220897.78 -28.65 30 0 0
929984.32 6220901.69 -28.33 30 0 0
929986.03 6220897.39 -28.49 30 0 0
929988.93 6220901.30 -28.14 30 0 0
929993.93 6220900.81 -28.04 30 0 0
929998.23 6220900.42 -27.92 30 0 0
929600.38 6220905.89 -37.63 30 0 0
929608.79 6220905.11 -37.20 30 0 0
929612.50 6220902.11 -36.76 30 0 0
929613.39 6220906.92 -37.08 30 0 0
929617.20 6220903.72 -36.41 30 0 0
929625.51 6220902.54 -36.31 30 0 0
929630.11 6220903.85 -35.80 30 0 0
929634.50 6220905.86 -35.87 30 0 0
929638.51 6220902.57 -35.37 30 0 0
929643.21 6220904.68 -35.21 30 0 0
929647.81 6220906.69 -35.11 30 0 0
929651.52 6220903.70 -34.91 30 0 0
929656.32 6220905.61 -34.61 30 0 0
929660.03 6220902.11 -34.15 30 0 0
929665.03 6220904.33 -34.14 30 0 0
929669.33 6220905.74 -33.82 30 0 0
929673.23 6220902.74 -33.58 30 0 0
929677.73 6220904.45 -33.19 30 0 0
929682.73 6220906.76 -32.87 30 0 0
929686.24 6220903.67 -32.46 30 0 0
929690.94 6220905.68 -31.97 30 0 0
929694.45 6220902.49 -31.78 30 0 0
929699.35 6220904.10 -31.64 30 0 0
929703.95 6220906.01 -31.34 30 0 0
929707.65 6220902.71 -30.84 30 0 0
929712.25 6220904.52 -30.71 30 0 0
929716.95 6220906.34 -30.64 30 0 0
929720.46 6220903.04 -30.48 30 0 0
929725.56 6220905.75 -30.22 30 0 0
929729.27 6220902.36 -30.06 30 0 0
929738.67 6220905.88 -30.05 30 0 0
929742.38 6220902.89 -29.65 30 0 0
929747.07 6220904.50 -29.71 30 0 0
929763.99 6220902.43 -29.41 30 0 0
929790.30 6220903.09 -31.00 30 0 0
929794.80 6220905.10 -30.91 30 0 0
929799.80 6220906.41 -31.09 30 0 0
929803.41 6220904.52 -31.16 30 0 0
929808.31 6220905.83 -31.25 30 0 0
929811.92 6220903.13 -31.25 30 0 0
929816.92 6220904.34 -30.84 30 0 0
929821.31 6220906.55 -30.71 30 0 0
929825.32 6220902.96 -30.52 30 0 0
929829.72 6220905.07 -30.27 30 0 0
929834.62 6220906.38 -29.98 30 0 0
929838.13 6220904.49 -29.88 30 0 0
929838.53 6220906.19 -29.84 30 0 0
929842.63 6220906.30 -29.79 30 0 0
929843.43 6220905.80 -29.84 30 0 0
929847.33 6220904.51 -29.80 30 0 0
929851.74 6220904.52 -30.45 30 0 0
929852.04 6220904.42 -30.14 30 0 0
929856.14 6220906.53 -30.27 30 0 0
929856.44 6220902.63 -30.61 30 0 0
929859.04 6220905.93 -30.68 30 0 0
929860.34 6220903.13 -30.55 30 0 0
929861.55 6220902.84 -30.75 30 0 0
929864.64 6220905.14 -31.00 30 0 0
929864.64 6220906.45 -30.59 30 0 0
929868.35 6220904.55 -30.75 30 0 0
929874.25 6220905.46 -30.45 30 0 0
929877.75 6220903.57 -30.43 30 0 0
929884.26 6220904.49 -30.30 30 0 0
929886.96 6220902.49 -30.66 30 0 0
929889.76 6220906.30 -30.64 30 0 0
929894.06 6220903.81 -30.61 30 0 0
929899.26 6220905.32 -31.14 30 0 0
929903.77 6220902.93 -31.30 30 0 0
929909.07 6220904.44 -30.91 30 0 0
929913.68 6220902.15 -31.09 30 0 0
929916.77 6220906.35 -31.08 30 0 0
929918.28 6220903.26 -31.71 30 0 0
929926.28 6220905.87 -31.12 30 0 0
929927.79 6220902.48 -31.41 30 0 0
929930.78 6220906.38 -31.06 30 0 0
929935.89 6220904.99 -30.98 30 0 0
929940.59 6220905.70 -30.44 30 0 0
929945.59 6220904.81 -30.16 30 0 0
929950.40 6220904.72 -29.15 30 0 0
929955.10 6220903.93 -29.24 30 0 0
929960.00 6220904.14 -29.20 30 0 0
929964.81 6220903.15 -28.88 30 0 0
929969.41 6220903.26 -28.42 30 0 0
929972.30 6220907.07 -28.64 30 0 0
929974.51 6220902.57 -28.66 30 0 0
929977.41 6220906.38 -28.74 30 0 0
929982.01 6220905.89 -28.42 30 0 0
929987.32 6220905.50 -28.07 30 0 0
929991.82 6220905.21 -27.57 30 0 0
929996.82 6220904.62 -27.74 30 0 0
929605.08 6220907.70 -37.60 30 0 0
929609.68 6220909.91 -37.17 30 0 0
929614.28 6220911.72 -36.89 30 0 0
929618.09 6220908.53 -36.64 30 0 0
929622.69 6220910.24 -36.37 30 0 0
929626.40 6220907.35 -36.20 30 0 0
929631.00 6220908.86 -35.97 30 0 0
929635.39 6220910.87 -35.71 30 0 0
929639.40 6220907.37 -35.18 30 0 0
929644.10 6220909.58 -35.41 30 0 0
929648.70 6220911.80 -35.22 30 0 0
929652.41 6220908.60 -34.71 30 0 0
929657.31 6220910.51 -34.85 30 0 0
929660.92 6220907.12 -34.36 30 0 0
929661.81 6220912.02 -34.47 30 0 0
929665.92 6220909.23 -34.35 30 0 0
929670.32 6220910.54 -33.86 30 0 0
929674.12 6220907.85 -33.73 30 0 0
929678.62 6220909.26 -33.36 30 0 0
929683.62 6220911.67 -32.95 30 0 0
929687.23 6220908.57 -32.42 30 0 0
929691.83 6220910.59 -32.18 30 0 0
929695.44 6220907.39 -31.84 30 0 0
929700.24 6220909.00 -31.65 30 0 0
929704.84 6220910.81 -31.28 30 0 0
929708.54 6220907.82 -31.17 30 0 0
929713.34 6220909.23 -30.94 30 0 0
929717.84 6220911.24 -30.67 30 0 0
929721.45 6220907.75 -30.39 30 0 0
929726.35 6220910.56 -30.41 30 0 0
929730.26 6220907.16 -29.95 30 0 0
929731.25 6220911.97 -29.73 30 0 0
929734.66 6220909.37 -30.00 30 0 0
929739.66 6220910.69 -29.55 30 0 0
929743.37 6220907.79 -29.88 30 0 0
929748.07 6220909.20 -29.52 30 0 0
929766.17 6220911.94 -29.73 30 0 0
929769.68 6220909.15 -29.59 30 0 0
929774.68 6220910.66 -29.88 30 0 0
929777.89 6220907.86 -29.80 30 0 0
929787.48 6220911.29 -30.09 30 0 0
929791.29 6220907.89 -30.48 30 0 0
929795.59 6220909.90 -29.86 30 0 0
929800.79 6220911.31 -30.91 30 0 0
929804.40 6220909.32 -31.04 30 0 0
929809.30 6220910.73 -30.91 30 0 0
929812.81 6220908.04 -30.88 30 0 0
929817.91 6220909.25 -30.80 30 0 0
929822.31 6220911.36 -30.29 30 0 0
929826.31 6220907.77 -30.25 30 0 0
929831.91 6220911.18 -29.23 30 0 0
929835.61 6220911.19 -29.43 30 0 0
929836.01 6220911.19 -29.27 30 0 0
929839.02 6220909.19 -29.86 30 0 0
929840.62 6220909.10 -29.73 30 0 0
929845.22 6220909.31 -29.43 30 0 0
929849.73 6220907.61 -29.48 30 0 0
929852.32 6220910.82 -29.50 30 0 0
929852.73 6220909.22 -29.64 30 0 0
929854.93 6220907.83 -29.89 30 0 0
929857.03 6220911.33 -29.70 30 0 0
929857.83 6220911.23 -29.91 30 0 0
929861.24 6220907.94 -30.45 30 0 0
929861.63 6220909.44 -30.27 30 0 0
929865.63 6220909.95 -30.34 30 0 0
929867.63 6220910.15 -29.66 30 0 0
929871.14 6220908.36 -29.88 30 0 0
929877.44 6220909.37 -29.88 30 0 0
929880.45 6220907.38 -30.18 30 0 0
929883.34 6220911.19 -29.87 30 0 0
929887.45 6220908.19 -31.12 30 0 0
929892.65 6220910.11 -30.84 30 0 0
929897.26 6220907.81 -30.85 30 0 0
929900.35 6220912.02 -30.17 30 0 0
929902.26 6220909.23 -30.56 30 0 0
929906.96 6220907.23 -30.56 30 0 0
929910.06 6220911.24 -30.61 30 0 0
929911.97 6220908.15 -30.94 30 0 0
929919.86 6220910.86 -29.79 30 0 0
929921.17 6220907.16 -30.97 30 0 0
929924.17 6220911.37 -29.24 30 0 0
929929.27 6220910.38 -29.22 30 0 0
929933.67 6220910.49 -29.06 30 0 0
929938.98 6220909.50 -28.96 30 0 0
929943.58 6220909.81 -29.25 30 0 0
929948.48 6220909.02 -29.03 30 0 0
929953.29 6220908.63 -28.97 30 0 0
929958.09 6220908.14 -28.76 30 0 0
929961.09 6220911.95 -28.59 30 0 0
929962.90 6220908.05 -28.79 30 0 0
929965.89 6220911.86 -28.43 30 0 0
929967.70 6220907.16 -28.14 30 0 0
929970.59 6220911.07 -28.48 30 0 0
929975.20 6220910.98 -27.97 30 0 0
929980.40 6220910.19 -27.76 30 0 0
929984.90 6220909.90 -27.86 30 0 0
929990.11 6220909.21 -27.79 30 0 0
929994.71 6220909.02 -27.16 30 0 0
929999.72 6220908.43 -27.55 30 0 0
929584.36 6220913.36 -39.17 30 0 0
929602.17 6220915.60 -38.03 30 0 0
929610.47 6220914.92 -37.22 30 0 0
929615.17 6220916.73 -36.92 30 0 0
929618.88 6220913.43 -36.90 30 0 0
929623.58 6220915.34 -36.61 30 0 0
929627.29 6220912.25 -36.22 30 0 0
929636.29 6220915.77 -36.31 30 0 0
929640.29 6220912.38 -35.56 30 0 0
929644.99 6220914.39 -35.58 30 0 0
929649.59 6220916.60 -35.37 30 0 0
929653.40 6220913.41 -34.98 30 0 0
929658.20 6220915.42 -34.67 30 0 0
929662.80 6220916.93 -34.64 30 0 0
929666.71 6220914.13 -34.36 30 0 0
929671.31 6220915.45 -33.92 30 0 0
929675.01 6220912.75 -34.06 30 0 0
929679.61 6220914.16 -33.31 30 0 0
929684.51 6220916.77 -33.05 30 0 0
929688.22 6220913.38 -32.68 30 0 0
929692.72 6220915.49 -32.24 30 0 0
929696.43 6220912.10 -31.93 30 0 0
929697.52 6220917.00 -31.95 30 0 0
929701.13 6220913.91 -31.58 30 0 0
929705.93 6220915.72 -31.52 30 0 0
929709.44 6220912.72 -31.11 30 0 0
929714.44 6220914.13 -30.89 30 0 0
929718.83 6220916.15 -30.86 30 0 0
929722.54 6220912.65 -30.45 30 0 0
929727.34 6220915.46 -30.79 30 0 0
929732.24 6220916.77 -30.25 30 0 0
929740.75 6220915.49 -29.98 30 0 0
929749.16 6220914.11 -29.61 30 0 0
929753.55 6220916.12 -29.52 30 0 0
929757.66 6220912.62 -29.39 30 0 0
929762.36 6220915.34 -29.45 30 0 0
929767.16 6220916.65 -29.32 30 0 0
929770.67 6220913.95 -29.96 30 0 0
929788.37 6220916.09 -29.77 30 0 0
929792.28 6220912.60 -29.96 30 0 0
929805.29 6220914.23 -30.36 30 0 0
929813.80 6220912.84 -30.34 30 0 0
929829.30 6220916.18 -29.25 30 0 0
929831.50 6220914.68 -29.25 30 0 0
929834.11 6220914.19 -28.98 30 0 0
929836.60 6220915.89 -29.27 30 0 0
929838.71 6220914.20 -29.32 30 0 0
929840.11 6220914.10 -29.36 30 0 0
929843.02 6220912.20 -29.14 30 0 0
929845.31 6220915.21 -29.19 30 0 0
929845.51 6220915.41 -29.30 30 0 0
929848.12 6220912.61 -29.34 30 0 0
929848.72 6220912.62 -29.55 30 0 0
929851.11 6220916.02 -29.43 30 0 0
929853.72 6220913.83 -29.41 30 0 0
929855.12 6220914.43 -29.43 30 0 0
929857.92 6220916.04 -29.62 30 0 0
929861.02 6220915.04 -29.41 30 0 0
929864.43 6220913.35 -29.24 30 0 0
929867.12 6220917.06 -29.25 30 0 0
929870.93 6220914.26 -29.23 30 0 0
929873.93 6220912.27 -29.43 30 0 0
929876.63 6220915.98 -29.57 30 0 0
929880.64 6220913.38 -29.73 30 0 0
929886.24 6220914.90 -29.98 30 0 0
929890.74 6220912.50 -30.18 30 0 0
929895.64 6220914.01 -29.85 30 0 0
929903.44 6220916.23 -29.76 30 0 0
929905.05 6220913.13 -30.39 30 0 0
929907.94 6220917.04 -29.90 30 0 0
929913.15 6220915.65 -29.64 30 0 0
929914.76 6220912.15 -30.13 30 0 0
929917.65 6220916.16 -29.74 30 0 0
929922.76 6220915.07 -29.18 30 0 0
929927.16 6220915.08 -29.06 30 0 0
929932.16 6220914.39 -29.11 30 0 0
929936.67 6220914.40 -29.07 30 0 0
929941.87 6220913.51 -29.15 30 0 0
929946.57 6220913.72 -28.87 30 0 0
929951.48 6220913.03 -28.83 30 0 0
929954.37 6220916.84 -28.76 30 0 0
929956.18 6220912.54 -28.72 30 0 0
929959.08 6220916.35 -28.23 30 0 0
929963.98 6220915.76 -28.26 30 0 0
929968.78 6220915.77 -27.91 30 0 0
929973.49 6220914.88 -27.94 30 0 0
929978.09 6220914.89 -27.72 30 0 0
929983.40 6220914.00 -27.81 30 0 0
929987.80 6220913.81 -27.58 30 0 0
929993.00 6220913.12 -27.42 30 0 0
929995.90 6220916.93 -27.10 30 0 0
929997.61 6220912.83 -27.00 30 0 0
929598.66 6220918.59 -38.85 30 0 0
929606.76 6220917.81 -37.41 30 0 0
929611.36 6220919.72 -37.30 30 0 0
929616.16 6220921.63 -37.34 30 0 0
929619.77 6220918.44 -37.00 30 0 0
929624.47 6220920.25 -36.59 30 0 0
929628.18 6220917.16 -36.46 30 0 0
929629.17 6220921.96 -36.30 30 0 0
929632.78 6220918.77 -36.16 30 0 0
929637.28 6220920.68 -36.27 30 0 0
929641.28 6220917.38 -35.79 30 0 0
929645.98 6220919.39 -35.72 30 0 0
929650.48 6220921.61 -35.53 30 0 0
929654.39 6220918.41 -35.15 30 0 0
929659.19 6220920.32 -35.07 30 0 0
929663.89 6220921.73 -34.92 30 0 0
929667.50 6220919.04 -34.59 30 0 0
929672.40 6220920.25 -34.31 30 0 0
929675.90 6220917.56 -33.92 30 0 0
929680.70 6220918.97 -33.19 30 0 0
929685.40 6220921.68 -32.87 30 0 0
929689.21 6220918.28 -32.56 30 0 0
929693.71 6220920.39 -32.45 30 0 0
929698.71 6220921.71 -32.00 30 0 0
929702.12 6220918.81 -31.73 30 0 0
929707.02 6220920.42 -31.52 30 0 0
929710.33 6220917.43 -31.20 30 0 0
929715.53 6220918.84 -31.18 30 0 0
929719.82 6220920.95 -30.68 30 0 0
929723.63 6220917.36 -30.77 30 0 0
929728.23 6220920.37 -30.32 30 0 0
929733.23 6220921.68 -30.16 30 0 0
929736.64 6220918.98 -30.36 30 0 0
929741.84 6220920.20 -30.05 30 0 0
929745.25 6220917.60 -30.16 30 0 0
929750.15 6220918.81 -29.95 30 0 0
929754.54 6220920.82 -29.79 30 0 0
929758.65 6220917.43 -29.59 30 0 0
929763.35 6220920.24 -29.57 30 0 0
929768.15 6220921.45 -29.61 30 0 0
929776.66 6220920.07 -29.70 30 0 0
929785.07 6220918.79 -29.52 30 0 0
929789.27 6220920.80 -29.41 30 0 0
929794.27 6220922.01 -29.75 30 0 0
929802.67 6220920.72 -29.58 30 0 0
929806.18 6220918.83 -29.43 30 0 0
929811.28 6220920.04 -29.53 30 0 0
929818.58 6220920.86 -28.84 30 0 0
929822.69 6220920.87 -28.93 30 0 0
929827.19 6220918.97 -29.15 30 0 0
929829.49 6220922.08 -28.95 30 0 0
929831.99 6220919.28 -28.89 30 0 0
929832.39 6220919.39 -29.31 30 0 0
929836.40 6220917.29 -29.12 30 0 0
929839.00 6220920.60 -29.14 30 0 0
929841.10 6220918.80 -29.26 30 0 0
929841.50 6220917.30 -29.32 30 0 0
929844.50 6220920.91 -29.44 30 0 0
929848.20 6220918.92 -29.16 30 0 0
929849.61 6220917.42 -29.36 30 0 0
929854.21 6220919.83 -29.16 30 0 0
929857.81 6220918.04 -29.16 30 0 0
929858.91 6220920.84 -29.25 30 0 0
929860.61 6220921.95 -28.94 30 0 0
929864.21 6220918.95 -29.24 30 0 0
929867.51 6220919.46 -29.38 30 0 0
929869.91 6220920.96 -29.46 30 0 0
929874.02 6220918.07 -29.44 30 0 0
929879.52 6220919.88 -29.28 30 0 0
929883.83 6220917.39 -29.89 30 0 0
929887.02 6220921.60 -29.39 30 0 0
929889.13 6220918.70 -29.99 30 0 0
929896.93 6220920.92 -29.29 30 0 0
929901.53 6220921.73 -29.61 30 0 0
929906.44 6220920.44 -29.55 30 0 0
929910.94 6220921.05 -29.73 30 0 0
929916.04 6220919.76 -29.50 30 0 0
929920.55 6220919.97 -29.32 30 0 0
929925.65 6220919.18 -29.08 30 0 0
929930.15 6220918.99 -28.94 30 0 0
929935.16 6220918.40 -29.07 30 0 0
929939.76 6220918.21 -28.74 30 0 0
929942.65 6220922.02 -28.65 30 0 0
929944.76 6220917.52 -28.65 30 0 0
929947.66 6220921.43 -28.60 30 0 0
929949.47 6220917.63 -28.54 30 0 0
929952.36 6220921.44 -28.59 30 0 0
929957.37 6220920.75 -28.42 30 0 0
929961.97 6220920.36 -28.32 30 0 0
929966.97 6220919.47 -28.25 30 0 0
929971.68 6220919.68 -27.66 30 0 0
929976.38 6220918.59 -27.99 30 0 0
929981.18 6220918.70 -27.94 30 0 0
929986.19 6220917.81 -27.48 30 0 0
929989.18 6220921.62 -27.04 30 0 0
929990.69 6220917.62 -27.02 30 0 0
929993.59 6220921.52 -26.56 30 0 0
929998.69 6220920.84 -26.55 30 0 0
929604.15 6220925.41 -38.44 30 0 0
929612.45 6220924.63 -37.52 30 0 0
929620.76 6220923.34 -36.76 30 0 0
929625.26 6220925.25 -36.74 30 0 0
929630.26 6220926.87 -36.91 30 0 0
929633.77 6220923.67 -36.45 30 0 0
929638.37 6220925.48 -36.17 30 0 0
929642.17 6220922.29 -36.10 30 0 0
929646.97 6220924.20 -36.02 30 0 0
929651.37 6220926.51 -35.67 30 0 0
929655.48 6220923.22 -35.40 30 0 0
929660.08 6220925.13 -34.88 30 0 0
929664.88 6220926.64 -34.77 30 0 0
929668.39 6220923.94 -34.55 30 0 0
929673.49 6220925.16 -34.09 30 0 0
929676.90 6220922.46 -33.87 30 0 0
929681.80 6220923.77 -33.31 30 0 0
929686.39 6220926.58 -33.09 30 0 0
929690.30 6220922.99 -32.48 30 0 0
929694.70 6220925.20 -32.34 30 0 0
929699.70 6220926.61 -32.08 30 0 0
929703.11 6220923.72 -31.80 30 0 0
929708.01 6220925.33 -31.62 30 0 0
929711.32 6220922.33 -31.23 30 0 0
929716.42 6220923.64 -31.07 30 0 0
929720.71 6220925.75 -30.77 30 0 0
929724.62 6220922.26 -30.75 30 0 0
929725.61 6220926.97 -30.66 30 0 0
929729.12 6220925.27 -30.38 30 0 0
929737.63 6220923.69 -30.16 30 0 0
929742.83 6220924.90 -30.04 30 0 0
929746.14 6220922.31 -29.70 30 0 0
929755.54 6220925.73 -29.75 30 0 0
929759.64 6220922.23 -29.84 30 0 0
929760.54 6220926.94 -29.80 30 0 0
929769.24 6220926.26 -29.32 30 0 0
929780.86 6220922.18 -29.11 30 0 0
929798.56 6220924.22 -29.33 30 0 0
929815.58 6220922.35 -29.07 30 0 0
929815.97 6220925.75 -28.88 30 0 0
929820.68 6220923.76 -28.89 30 0 0
929823.17 6220926.87 -29.02 30 0 0
929825.28 6220923.87 -28.92 30 0 0
929832.18 6220925.39 -28.71 30 0 0
929833.38 6220924.19 -29.10 30 0 0
929834.79 6220922.49 -29.23 30 0 0
929837.78 6220925.90 -29.25 30 0 0
929841.59 6220924.01 -29.35 30 0 0
929842.09 6220923.71 -29.29 30 0 0
929847.49 6220924.52 -29.49 30 0 0
929850.60 6220922.23 -29.11 30 0 0
929850.90 6220922.63 -29.09 30 0 0
929853.59 6220926.33 -29.23 30 0 0
929857.40 6220923.74 -28.90 30 0 0
929863.40 6220925.65 -28.92 30 0 0
929867.51 6220922.96 -28.88 30 0 0
929870.60 6220926.87 -28.84 30 0 0
929872.81 6220924.77 -28.98 30 0 0
929877.21 6220922.38 -28.94 30 0 0
929880.31 6220926.39 -28.80 30 0 0
929882.41 6220923.79 -29.12 30 0 0
929890.11 6220925.81 -28.81 30 0 0
929892.12 6220922.71 -29.26 30 0 0
929894.92 6220926.62 -28.58 30 0 0
929899.92 6220925.13 -29.04 30 0 0
929904.32 6220925.54 -29.27 30 0 0
929909.43 6220924.65 -29.23 30 0 0
929913.83 6220924.86 -29.01 30 0 0
929919.14 6220923.97 -29.00 30 0 0
929923.44 6220923.98 -28.96 30 0 0
929928.54 6220923.39 -28.66 30 0 0
929933.05 6220922.90 -28.26 30 0 0
929935.94 6220926.71 -28.52 30 0 0
929938.05 6220922.41 -28.61 30 0 0
929941.04 6220926.32 -28.41 30 0 0
929945.65 6220925.93 -28.37 30 0 0
929950.55 6220925.34 -28.21 30 0 0
929955.25 6220925.35 -28.15 30 0 0
929960.26 6220924.46 -28.15 30 0 0
929964.86 6220924.27 -28.08 30 0 0
929969.97 6220923.48 -27.63 30 0 0
929974.57 6220923.49 -27.56 30 0 0
929979.37 6220922.50 -27.57 30 0 0
929982.27 6220926.30 -26.91 30 0 0
929984.08 6220922.41 -27.45 30 0 0
929987.07 6220926.31 -26.81 30 0 0
929991.98 6220925.42 -26.75 30 0 0
929996.48 6220925.43 -26.18 30 0 0
929600.34 6220928.60 -38.92 30 0 0
929618.04 6220931.54 -37.73 30 0 0
929626.25 6220930.26 -37.34 30 0 0
929639.46 6220930.39 -36.23 30 0 0
929643.07 6220927.19 -36.28 30 0 0
929647.96 6220929.10 -35.60 30 0 0
929652.36 6220931.41 -35.80 30 0 0
929656.57 6220928.12 -34.98 30 0 0
929661.07 6220930.13 -35.16 30 0 0
929665.97 6220931.24 -35.01 30 0 0
929669.28 6220928.85 -34.41 30 0 0
929674.38 6220929.96 -34.09 30 0 0
929677.89 6220927.37 -33.70 30 0 0
929682.89 6220928.58 -33.26 30 0 0
929687.28 6220931.49 -33.06 30 0 0
929691.29 6220927.89 -32.58 30 0 0
929695.69 6220930.10 -32.35 30 0 0
929700.69 6220931.42 -32.20 30 0 0
929704.00 6220928.52 -31.61 30 0 0
929709.00 6220929.93 -31.61 30 0 0
929712.21 6220927.24 -31.30 30 0 0
929713.20 6220931.94 -31.20 30 0 0
929717.41 6220928.35 -31.11 30 0 0
929721.80 6220930.56 -30.89 30 0 0
929726.61 6220931.67 -30.79 30 0 0
929730.01 6220929.98 -30.27 30 0 0
929735.11 6220931.09 -30.24 30 0 0
929738.62 6220928.59 -29.95 30 0 0
929743.82 6220929.61 -29.97 30 0 0
929747.13 6220927.11 -29.61 30 0 0
929748.02 6220931.92 -29.79 30 0 0
929752.13 6220928.22 -29.75 30 0 0
929756.53 6220930.43 -29.62 30 0 0
929761.53 6220931.64 -29.55 30 0 0
929765.23 6220929.85 -29.37 30 0 0
929773.44 6220928.37 -29.46 30 0 0
929782.84 6220931.79 -29.20 30 0 0
929787.05 6220928.20 -29.36 30 0 0
929791.15 6220930.41 -29.23 30 0 0
929805.05 6220930.53 -29.09 30 0 0
929814.06 6220928.55 -28.20 30 0 0
929816.26 6220931.56 -29.01 30 0 0
929816.57 6220927.16 -29.41 30 0 0
929818.67 6220928.66 -29.11 30 0 0
929821.56 6220931.97 -28.90 30 0 0
929828.18 6220927.28 -28.50 30 0 0
929834.88 6220928.80 -29.33 30 0 0
929844.28 6220927.82 -28.86 30 0 0
929850.69 6220928.43 -29.12 30 0 0
929856.39 6220930.34 -28.46 30 0 0
929860.49 6220927.65 -28.86 30 0 0
929866.39 6220929.66 -28.46 30 0 0
929873.79 6220931.18 -28.46 30 0 0
929875.80 6220928.58 -29.19 30 0 0
929885.31 6220927.70 -28.84 30 0 0
929888.10 6220931.61 -28.23 30 0 0
929893.21 6220929.92 -28.64 30 0 0
929897.81 6220930.53 -29.10 30 0 0
929907.32 6220929.55 -28.81 30 0 0
929912.32 6220928.76 -28.92 30 0 0
929916.82 6220928.67 -29.07 30 0 0
929922.03 6220927.98 -28.79 30 0 0
929924.82 6220931.99 -28.64 30 0 0
929926.43 6220927.89 -28.67 30 0 0
929929.23 6220931.60 -28.67 30 0 0
929931.44 6220927.40 -28.51 30 0 0
929934.33 6220931.31 -28.25 30 0 0
929938.83 6220930.62 -28.26 30 0 0
929944.04 6220930.13 -28.37 30 0 0
929948.54 6220929.74 -28.34 30 0 0
929953.45 6220929.04 -27.87 30 0 0
929958.15 6220929.15 -27.75 30 0 0
929963.15 6220928.26 -27.64 30 0 0
929966.15 6220932.07 -27.64 30 0 0
929967.76 6220928.17 -27.63 30 0 0
929970.65 6220932.08 -27.00 30 0 0
929972.76 6220927.18 -27.66 30 0 0
929975.65 6220931.09 -26.90 30 0 0
929977.56 6220927.29 -27.37 30 0 0
929980.46 6220931.20 -26.97 30 0 0
929985.06 6220930.21 -26.50 30 0 0
929989.97 6220930.12 -26.41 30 0 0
929994.87 6220929.33 -26.05 30 0 0
929999.27 6220929.24 -25.87 30 0 0
929619.03 6220936.55 -37.48 30 0 0
929622.84 6220933.05 -37.16 30 0 0
929627.14 6220935.06 -37.56 30 0 0
929632.34 6220936.48 -36.98 30 0 0
929635.75 6220933.48 -36.59 30 0 0
929640.55 6220935.09 -36.23 30 0 0
929643.96 6220932.20 -36.02 30 0 0
929644.85 6220937.00 -36.51 30 0 0
929649.05 6220933.91 -36.02 30 0 0
929653.45 6220936.32 -36.17 30 0 0
929657.56 6220932.83 -35.73 30 0 0
929662.06 6220935.04 -35.35 30 0 0
929666.96 6220936.15 -35.10 30 0 0
929670.27 6220933.65 -34.69 30 0 0
929675.47 6220934.87 -34.20 30 0 0
929678.88 6220932.17 -33.77 30 0 0
929679.87 6220936.98 -33.84 30 0 0
929683.88 6220933.28 -33.41 30 0 0
929688.27 6220936.29 -33.06 30 0 0
929692.18 6220932.70 -32.72 30 0 0
929696.68 6220934.81 -32.55 30 0 0
929701.68 6220936.12 -32.16 30 0 0
929704.99 6220933.33 -31.91 30 0 0
929709.99 6220934.64 -31.43 30 0 0
929714.29 6220936.85 -31.48 30 0 0
929718.30 6220933.25 -31.06 30 0 0
929722.70 6220935.36 -30.96 30 0 0
929727.70 6220936.38 -30.62 30 0 0
929731.00 6220934.68 -30.42 30 0 0
929736.10 6220935.89 -30.18 30 0 0
929739.61 6220933.30 -30.05 30 0 0
929744.81 6220934.41 -30.14 30 0 0
929748.91 6220936.72 -29.73 30 0 0
929753.22 6220933.03 -29.74 30 0 0
929757.52 6220935.24 -29.63 30 0 0
929766.22 6220934.56 -29.39 30 0 0
929774.33 6220933.07 -29.12 30 0 0
929779.63 6220934.28 -29.24 30 0 0
929788.04 6220932.90 -29.05 30 0 0
929792.04 6220935.11 -28.89 30 0 0
929802.54 6220935.43 -28.14 30 0 0
929807.15 6220933.54 -28.50 30 0 0
929809.54 6220936.75 -28.20 30 0 0
929811.75 6220933.55 -28.86 30 0 0
929814.55 6220936.66 -29.16 30 0 0
929837.57 6220932.40 -28.89 30 0 0
929840.36 6220936.31 -28.58 30 0 0
929844.07 6220933.52 -28.60 30 0 0
929859.38 6220934.15 -28.64 30 0 0
929866.88 6220935.87 -28.19 30 0 0
929869.29 6220933.37 -28.36 30 0 0
929876.89 6220935.39 -28.12 30 0 0
929878.59 6220932.39 -28.33 30 0 0
929881.59 6220936.50 -27.44 30 0 0
929886.39 6220934.81 -28.36 30 0 0
929891.00 6220935.52 -28.38 30 0 0
929896.20 6220934.23 -27.71 30 0 0
929900.70 6220934.44 -28.47 30 0 0
929905.71 6220933.45 -28.59 30 0 0
929910.31 6220933.46 -28.04 30 0 0
929915.32 6220932.87 -28.72 30 0 0
929918.21 6220936.78 -28.16 30 0 0
929919.82 6220932.58 -28.85 30 0 0
929922.81 6220936.49 -28.35 30 0 0
929927.82 6220936.00 -28.18 30 0 0
929932.22 6220935.60 -28.40 30 0 0
929937.22 6220935.11 -27.98 30 0 0
929941.73 6220934.52 -28.05 30 0 0
929947.03 6220933.93 -27.61 30 0 0
929951.43 6220933.64 -27.80 30 0 0
929956.34 6220932.85 -27.73 30 0 0
929959.33 6220936.76 -27.14 30 0 0
929961.14 6220932.96 -27.52 30 0 0
929964.04 6220936.77 -27.57 30 0 0
929969.04 6220935.88 -27.04 30 0 0
929973.64 6220935.99 -26.53 30 0 0
929978.45 6220934.80 -26.47 30 0 0
929983.35 6220935.21 -26.30 30 0 0
929987.96 6220934.02 -26.07 30 0 0
929992.76 6220934.13 -25.85 30 0 0
929997.66 6220933.14 -25.96 30 0 0
929610.42 6220937.73 -38.09 30 0 0
929616.03 6220937.74 -37.45 30 0 0
929623.93 6220938.06 -37.45 30 0 0
929628.13 6220939.97 -37.19 30 0 0
929641.64 6220940.10 -36.85 30 0 0
929645.84 6220941.91 -36.26 30 0 0
929654.54 6220941.23 -36.20 30 0 0
929658.65 6220937.73 -35.63 30 0 0
929663.05 6220939.84 -35.47 30 0 0
929667.95 6220940.85 -35.05 30 0 0
929671.26 6220938.56 -34.59 30 0 0
929676.36 6220939.47 -34.26 30 0 0
929680.96 6220941.78 -33.94 30 0 0
929684.87 6220938.09 -33.50 30 0 0
929689.26 6220941.10 -33.35 30 0 0
929693.17 6220937.40 -32.72 30 0 0
929697.67 6220939.71 -32.61 30 0 0
929702.67 6220940.93 -32.47 30 0 0
929705.98 6220938.23 -32.11 30 0 0
929711.08 6220939.44 -31.73 30 0 0
929715.28 6220941.65 -31.62 30 0 0
929719.29 6220937.86 -31.28 30 0 0
929723.69 6220940.07 -30.95 30 0 0
929728.69 6220941.08 -30.35 30 0 0
929731.99 6220939.59 -30.35 30 0 0
929737.19 6220940.70 -30.25 30 0 0
929740.60 6220938.00 -30.00 30 0 0
929745.80 6220939.12 -30.23 30 0 0
929754.21 6220937.73 -29.68 30 0 0
929758.61 6220939.84 -29.53 30 0 0
929763.51 6220940.95 -29.32 30 0 0
929772.21 6220940.27 -29.22 30 0 0
929775.42 6220937.98 -29.05 30 0 0
929791.73 6220940.11 -28.22 30 0 0
929800.44 6220938.13 -28.62 30 0 0
929803.03 6220941.34 -27.96 30 0 0
929805.24 6220938.44 -28.31 30 0 0
929808.03 6220941.65 -28.14 30 0 0
929817.64 6220940.47 -28.26 30 0 0
929827.65 6220939.29 -27.72 30 0 0
929837.26 6220938.41 -28.16 30 0 0
929843.16 6220940.12 -28.60 30 0 0
929847.36 6220937.53 -27.96 30 0 0
929852.66 6220939.34 -28.15 30 0 0
929860.17 6220940.76 -28.34 30 0 0
929865.07 6220941.87 -27.75 30 0 0
929870.07 6220940.18 -27.78 30 0 0
929872.08 6220937.28 -28.24 30 0 0
929875.07 6220941.29 -27.72 30 0 0
929879.78 6220939.60 -27.81 30 0 0
929884.48 6220940.11 -28.14 30 0 0
929893.99 6220939.33 -28.22 30 0 0
929899.09 6220938.24 -28.12 30 0 0
929908.60 6220937.46 -28.59 30 0 0
929913.30 6220937.37 -27.89 30 0 0
929916.10 6220941.07 -27.71 30 0 0
929921.20 6220940.68 -27.77 30 0 0
929925.71 6220940.29 -28.18 30 0 0
929930.71 6220939.80 -28.00 30 0 0
929935.11 6220939.51 -27.76 30 0 0
929940.22 6220938.92 -27.88 30 0 0
929944.62 6220938.53 -27.73 30 0 0
929949.93 6220937.74 -27.71 30 0 0
929952.82 6220941.65 -27.31 30 0 0
929954.33 6220937.45 -27.65 30 0 0
929957.32 6220941.36 -27.43 30 0 0
929971.83 6220939.59 -27.02 30 0 0
929976.54 6220939.80 -26.53 30 0 0
929981.24 6220938.71 -26.21 30 0 0
929986.14 6220939.02 -26.02 30 0 0
929990.85 6220937.83 -25.45 30 0 0
929993.74 6220941.74 -25.00 30 0 0
929995.55 6220937.94 -25.61 30 0 0
929998.35 6220942.05 -24.36 30 0 0
929616.71 6220943.95 -37.70 30 0 0
929621.01 6220946.26 -37.92 30 0 0
929624.92 6220942.66 -37.38 30 0 0
929634.32 6220946.09 -37.44 30 0 0
929637.73 6220943.29 -36.66 30 0 0
929642.63 6220944.80 -36.91 30 0 0
929646.83 6220946.71 -36.89 30 0 0
929651.04 6220943.42 -36.33 30 0 0
929655.63 6220946.03 -36.26 30 0 0
929659.64 6220942.34 -35.94 30 0 0
929664.04 6220944.65 -35.37 30 0 0
929669.04 6220945.76 -35.18 30 0 0
929672.35 6220943.26 -34.68 30 0 0
929677.35 6220944.27 -34.26 30 0 0
929681.85 6220946.59 -34.18 30 0 0
929685.86 6220942.89 -33.75 30 0 0
929690.15 6220946.00 -33.34 30 0 0
929694.26 6220942.21 -32.98 30 0 0
929695.25 6220946.91 -33.17 30 0 0
929698.66 6220944.52 -32.72 30 0 0
929703.66 6220945.63 -32.52 30 0 0
929706.97 6220942.94 -32.03 30 0 0
929712.17 6220944.15 -31.81 30 0 0
929716.27 6220946.36 -31.44 30 0 0
929720.38 6220942.76 -31.37 30 0 0
929724.68 6220944.87 -31.18 30 0 0
929729.68 6220945.69 -30.35 30 0 0
929732.98 6220944.29 -30.23 30 0 0
929738.18 6220945.30 -30.38 30 0 0
929741.59 6220942.81 -29.84 30 0 0
929746.69 6220943.82 -29.88 30 0 0
929750.89 6220946.23 -29.59 30 0 0
929755.20 6220942.24 -29.27 30 0 0
929756.29 6220946.94 -29.44 30 0 0
929768.10 6220944.07 -28.73 30 0 0
929773.21 6220944.98 -28.62 30 0 0
929776.41 6220942.58 -28.61 30 0 0
929785.01 6220945.10 -28.07 30 0 0
929789.11 6220945.11 -28.17 30 0 0
929793.82 6220943.02 -28.09 30 0 0
929796.22 6220946.23 -28.03 30 0 0
929798.42 6220943.13 -28.49 30 0 0
929805.63 6220944.64 -27.68 30 0 0
929814.83 6220943.46 -28.06 30 0 0
929817.63 6220947.07 -27.85 30 0 0
929820.74 6220943.98 -28.57 30 0 0
929826.84 6220945.99 -27.63 30 0 0
929830.84 6220943.10 -28.17 30 0 0
929836.54 6220945.11 -27.58 30 0 0
929843.74 6220946.53 -27.49 30 0 0
929846.05 6220944.03 -27.53 30 0 0
929853.75 6220945.75 -27.47 30 0 0
929855.56 6220943.05 -28.62 30 0 0
929858.55 6220947.06 -27.30 30 0 0
929863.36 6220945.17 -27.38 30 0 0
929867.96 6220945.98 -27.36 30 0 0
929872.97 6220944.29 -27.60 30 0 0
929877.87 6220945.10 -27.58 30 0 0
929882.77 6220943.81 -27.65 30 0 0
929892.28 6220943.23 -27.30 30 0 0
929896.98 6220943.23 -27.52 30 0 0
929899.98 6220947.04 -27.53 30 0 0
929901.99 6220942.24 -27.62 30 0 0
929906.49 6220942.15 -28.15 30 0 0
929909.38 6220946.06 -27.45 30 0 0
929914.39 6220945.57 -27.49 30 0 0
929919.09 6220945.08 -27.79 30 0 0
929924.20 6220944.49 -27.95 30 0 0
929928.70 6220944.20 -27.61 30 0 0
929933.70 6220943.61 -27.78 30 0 0
929937.91 6220943.22 -27.77 30 0 0
929943.21 6220942.63 -27.75 30 0 0
929946.11 6220946.34 -27.57 30 0 0
929947.41 6220942.24 -27.46 30 0 0
929950.41 6220946.15 -27.37 30 0 0
929955.71 6220945.36 -27.48 30 0 0
929960.22 6220945.17 -27.17 30 0 0
929965.02 6220944.28 -26.81 30 0 0
929970.02 6220944.49 -26.47 30 0 0
929974.83 6220943.50 -26.05 30 0 0
929979.43 6220943.71 -26.13 30 0 0
929984.14 6220942.52 -26.01 30 0 0
929987.03 6220946.53 -25.33 30 0 0
929988.94 6220943.03 -25.38 30 0 0
929991.63 6220947.04 -24.67 30 0 0
929996.64 6220945.55 -24.32 30 0 0
929595.89 6220949.61 -39.51 30 0 0
929609.10 6220949.63 -38.41 30 0 0
929621.90 6220951.06 -37.57 30 0 0
929626.01 6220947.57 -37.58 30 0 0
929635.21 6220950.89 -36.81 30 0 0
929647.82 6220951.52 -36.68 30 0 0
929656.52 6220950.74 -36.10 30 0 0
929660.63 6220947.24 -36.05 30 0 0
929661.62 6220951.95 -36.08 30 0 0
929664.93 6220949.45 -35.56 30 0 0
929670.03 6220950.36 -35.22 30 0 0
929673.34 6220948.07 -34.77 30 0 0
929678.44 6220948.98 -34.52 30 0 0
929682.84 6220951.49 -34.22 30 0 0
929686.85 6220947.50 -33.71 30 0 0
929691.14 6220950.81 -33.42 30 0 0
929696.25 6220951.62 -33.17 30 0 0
929699.65 6220949.22 -32.80 30 0 0
929704.65 6220950.24 -32.32 30 0 0
929707.86 6220947.84 -32.14 30 0 0
929713.16 6220948.85 -31.77 30 0 0
929717.36 6220951.06 -31.48 30 0 0
929721.27 6220947.27 -30.97 30 0 0
929722.26 6220952.07 -30.88 30 0 0
929725.57 6220949.58 -30.96 30 0 0
929730.67 6220950.49 -30.62 30 0 0
929734.07 6220949.00 -30.54 30 0 0
929739.27 6220950.01 -30.28 30 0 0
929742.58 6220947.61 -29.97 30 0 0
929747.68 6220948.62 -29.97 30 0 0
929751.98 6220950.94 -29.56 30 0 0
929757.18 6220951.55 -29.03 30 0 0
929765.49 6220950.36 -29.05 30 0 0
929774.10 6220949.58 -28.42 30 0 0
929778.30 6220949.59 -28.15 30 0 0
929782.50 6220948.30 -28.31 30 0 0
929791.81 6220948.12 -27.81 30 0 0
929794.60 6220951.53 -27.35 30 0 0
929798.81 6220949.53 -27.29 30 0 0
929804.31 6220949.94 -27.83 30 0 0
929808.22 6220947.95 -28.28 30 0 0
929827.22 6220951.89 -27.64 30 0 0
929829.63 6220949.80 -27.39 30 0 0
929833.94 6220947.10 -27.76 30 0 0
929837.13 6220951.31 -27.49 30 0 0
929846.84 6220950.53 -27.61 30 0 0
929851.94 6220951.85 -27.11 30 0 0
929856.74 6220949.95 -27.23 30 0 0
929861.35 6220950.76 -27.10 30 0 0
929866.35 6220949.37 -27.26 30 0 0
929870.85 6220949.78 -27.12 30 0 0
929876.06 6220948.49 -27.12 30 0 0
929880.86 6220949.10 -26.92 30 0 0
929885.67 6220948.01 -26.76 30 0 0
929888.56 6220952.02 -26.74 30 0 0
929890.37 6220947.92 -26.83 30 0 0
929893.36 6220951.83 -26.81 30 0 0
929895.17 6220947.13 -27.05 30 0 0
929898.17 6220951.14 -27.08 30 0 0
929902.97 6220950.85 -27.14 30 0 0
929907.77 6220950.16 -27.15 30 0 0
929912.28 6220949.97 -27.11 30 0 0
929921.89 6220948.89 -27.52 30 0 0
929927.09 6220948.30 -27.61 30 0 0
929931.59 6220948.01 -27.58 30 0 0
929934.59 6220951.92 -27.42 30 0 0
929936.50 6220947.32 -27.85 30 0 0
929939.39 6220951.13 -27.53 30 0 0
929940.90 6220947.13 -27.71 30 0 0
929943.89 6220950.84 -27.49 30 0 0
929949.10 6220950.15 -27.28 30 0 0
929953.30 6220949.96 -27.15 30 0 0
929958.51 6220949.27 -27.15 30 0 0
929963.01 6220949.08 -26.68 30 0 0
929967.91 6220948.09 -26.40 30 0 0
929970.81 6220952.00 -25.90 30 0 0
929972.72 6220948.30 -26.31 30 0 0
929977.62 6220947.31 -26.00 30 0 0
929980.42 6220951.21 -25.47 30 0 0
929982.12 6220947.62 -25.77 30 0 0
929985.02 6220951.62 -24.75 30 0 0
929989.72 6220950.43 -24.39 30 0 0
929994.52 6220950.94 -23.92 30 0 0
929999.43 6220949.45 -23.92 30 0 0
929602.89 6220953.32 -39.25 30 0 0
929617.89 6220956.16 -37.74 30 0 0
929631.10 6220954.48 -37.46 30 0 0
929636.30 6220955.70 -37.09 30 0 0
929639.71 6220953.00 -36.93 30 0 0
929644.71 6220954.41 -36.82 30 0 0
929648.71 6220956.22 -36.39 30 0 0
929653.12 6220953.03 -36.54 30 0 0
929657.51 6220955.64 -36.33 30 0 0
929662.61 6220956.85 -36.02 30 0 0
929665.92 6220954.26 -35.58 30 0 0
929671.12 6220955.17 -35.42 30 0 0
929674.43 6220952.87 -34.83 30 0 0
929679.43 6220953.78 -34.77 30 0 0
929683.83 6220956.20 -34.22 30 0 0
929687.84 6220952.30 -33.79 30 0 0
929688.83 6220957.01 -33.65 30 0 0
929692.24 6220955.51 -33.57 30 0 0
929697.24 6220956.32 -32.98 30 0 0
929700.74 6220954.03 -32.81 30 0 0
929705.64 6220955.04 -32.32 30 0 0
929708.85 6220952.45 -32.18 30 0 0
929714.15 6220953.46 -31.73 30 0 0
929718.45 6220955.77 -31.34 30 0 0
929723.25 6220956.78 -30.97 30 0 0
929726.66 6220954.28 -30.93 30 0 0
929735.16 6220953.70 -30.39 30 0 0
929740.27 6220954.71 -30.18 30 0 0
929743.67 6220952.32 -30.05 30 0 0
929744.66 6220957.02 -29.77 30 0 0
929748.57 6220953.33 -29.68 30 0 0
929753.07 6220955.64 -29.32 30 0 0
929758.07 6220956.45 -29.01 30 0 0
929761.68 6220954.06 -29.05 30 0 0
929766.38 6220955.07 -28.55 30 0 0
929771.68 6220954.48 -27.67 30 0 0
929775.79 6220954.59 -27.89 30 0 0
929782.79 6220955.70 -27.53 30 0 0
929785.10 6220952.71 -27.92 30 0 0
929787.99 6220956.21 -27.22 30 0 0
929792.20 6220954.52 -26.81 30 0 0
929797.70 6220954.93 -27.22 30 0 0
929801.40 6220953.14 -27.00 30 0 0
929804.10 6220956.85 -27.02 30 0 0
929807.51 6220953.85 -27.15 30 0 0
929813.81 6220955.77 -26.91 30 0 0
929817.21 6220952.97 -27.14 30 0 0
929820.41 6220956.88 -26.99 30 0 0
929823.21 6220954.69 -27.13 30 0 0
929830.42 6220956.00 -27.12 30 0 0
929832.62 6220953.71 -27.28 30 0 0
929840.32 6220955.52 -26.88 30 0 0
929842.33 6220952.73 -27.26 30 0 0
929845.12 6220956.73 -26.62 30 0 0
929849.93 6220954.84 -26.66 30 0 0
929854.73 6220955.65 -26.79 30 0 0
929859.74 6220954.16 -26.82 30 0 0
929864.34 6220954.67 -26.86 30 0 0
929869.24 6220953.58 -26.72 30 0 0
929873.85 6220953.69 -26.53 30 0 0
929878.95 6220952.70 -26.49 30 0 0
929881.85 6220956.71 -26.29 30 0 0
929883.75 6220952.91 -26.53 30 0 0
929886.65 6220956.82 -26.28 30 0 0
929891.45 6220956.03 -26.56 30 0 0
929896.26 6220955.64 -26.65 30 0 0
929901.06 6220954.95 -26.65 30 0 0
929905.86 6220954.86 -26.43 30 0 0
929910.67 6220954.07 -26.87 30 0 0
929915.27 6220953.88 -26.98 30 0 0
929920.28 6220953.09 -27.25 30 0 0
929923.27 6220956.90 -26.90 30 0 0
929924.78 6220952.90 -27.02 30 0 0
929927.67 6220956.71 -26.84 30 0 0
929929.98 6220952.11 -27.11 30 0 0
929932.98 6220955.82 -27.29 30 0 0
929942.18 6220955.04 -26.74 30 0 0
929946.99 6220954.75 -26.96 30 0 0
